-81.208,-81.402,-81.395,-81.225,-80.92,-80.504,-80.004,-79.446,-78.855,-78.266,-77.716,-77.246,-76.892,-76.643,-76.431,-76.18,-75.822,-75.349,-74.82,-74.302,-73.858,-73.507,-73.218,-72.956,-72.686,-72.348,-71.854,-71.113,-70.042,-68.668,-67.145,-65.637,-64.3,-63.188,-62.234,-61.362,-60.497,-59.594,-58.635,-57.605,-56.491,-55.282,-53.972,-52.556,-51.031,-49.469,-48.023,-46.854,-46.117,-45.843,-45.93,-46.261,-46.726,-47.253,-47.82,-48.407,-48.995,-49.564,-50.098,-50.579,-50.993,-51.327,-51.58,-51.748,-51.83,-51.847,-51.842,-51.861,-51.95,-52.124,-52.368,-52.664,-52.995,-53.336,-53.655,-53.921,-54.103,-54.188,-54.187,-54.109,-53.966,-53.769,-53.529,-53.258,-52.967,-52.67,-52.385,-52.128,-51.914,-51.73,-51.527,-51.253,-50.861,-50.357,-49.811,-49.298,-48.89,-48.605,-48.402,-48.237,-48.065,-47.854,-47.587,-47.25,-46.827,-46.334,-45.818,-45.329,-44.915,-44.589,-44.327,-44.099,-43.878,-43.646,-43.399,-43.134,-42.846,-42.549,-42.08,-42.033,-70.112,-81.534,-79.958,-80,-80,-80,-80,-80,-80,-80,-80,-80,-80,-80,-80,-79.996,-79.99,-81.736,-70.319,-39.816,-38.092,-37.679,-36.691,-35.614,-34.485,-33.367,-32.336,-31.472,-30.851,-30.471,-30.254,-30.109,-29.952,-29.746,-29.507,-29.256,-29.014,-28.787,-28.567,-28.342,-28.104,-27.856,-27.616,-27.404,-27.239,-27.132,-27.087,-27.104,-27.186,-27.335,-27.555,-27.85,-28.223,-28.675,-29.2,-29.793,-30.45,-31.167,-31.942,-32.773,-33.658,-34.556,-35.392,-36.081,-36.548,-36.803,-36.951,-37.107,-37.381,-37.806,-38.331,-38.894,-39.439,-39.945,-40.428,-40.909,-41.408,-41.931,-42.467,-43.005,-43.534,-44.051,-44.562,-45.074,-45.59,-46.062,-46.381,-46.434,-46.113,-45.434,-44.545,-43.61,-42.782,-42.104,-41.491,-40.846,-40.077,-39.124,-37.965,-36.579,-34.947,-33.064,-30.934,-28.564,-25.97,-23.315,-20.926,-19.151,-18.311,-18.372,-18.902,-19.425,-19.494,-19.033,-18.371,-17.88,-17.921,-18.789,-20.706,-23.892,-28.536,-34.353,-40.527,-46.186,-50.499,-53.225,-54.766,-55.593,-56.153,-56.685,-57.193,-57.657,-58.063,-58.395,-58.638,-58.773,-58.802,-58.8,-58.8,-58.8
-81.243,-81.314,-81.264,-81.107,-80.851,-80.505,-80.076,-79.572,-79.002,-78.395,-77.804,-77.282,-76.88,-76.594,-76.362,-76.114,-75.783,-75.354,-74.865,-74.361,-73.886,-73.448,-73.022,-72.577,-72.085,-71.514,-70.827,-69.99,-68.968,-67.782,-66.511,-65.24,-64.051,-62.977,-62.002,-61.1,-60.249,-59.413,-58.541,-57.58,-56.481,-55.219,-53.794,-52.212,-50.482,-48.697,-47.044,-45.723,-44.92,-44.674,-44.855,-45.318,-45.923,-46.581,-47.261,-47.94,-48.592,-49.198,-49.745,-50.219,-50.611,-50.919,-51.157,-51.341,-51.485,-51.6,-51.695,-51.778,-51.856,-51.951,-52.099,-52.337,-52.7,-53.167,-53.657,-54.082,-54.361,-54.468,-54.443,-54.332,-54.18,-54.004,-53.794,-53.537,-53.22,-52.857,-52.489,-52.158,-51.906,-51.722,-51.54,-51.288,-50.898,-50.378,-49.817,-49.314,-48.962,-48.771,-48.667,-48.561,-48.374,-48.075,-47.696,-47.273,-46.839,-46.415,-46.001,-45.595,-45.199,-44.815,-44.452,-44.118,-43.822,-43.56,-43.319,-43.083,-42.838,-42.599,-40.948,-53.89,-81.036,-80.088,-79.999,-80,-80,-80,-80,-80,-80,-80,-80,-80,-80,-80,-80,-80,-80,-80.002,-81.761,-60.966,-36.722,-37.288,-36.483,-35.549,-34.557,-33.556,-32.607,-31.771,-31.108,-30.629,-30.293,-30.056,-29.872,-29.713,-29.568,-29.427,-29.281,-29.125,-28.962,-28.797,-28.632,-28.469,-28.308,-28.149,-27.99,-27.838,-27.704,-27.599,-27.537,-27.536,-27.627,-27.838,-28.199,-28.708,-29.33,-30.027,-30.763,-31.523,-32.32,-33.166,-34.071,-35.001,-35.867,-36.579,-37.049,-37.285,-37.4,-37.517,-37.752,-38.145,-38.647,-39.203,-39.761,-40.297,-40.824,-41.359,-41.915,-42.495,-43.086,-43.674,-44.245,-44.794,-45.321,-45.831,-46.324,-46.749,-47.004,-46.977,-46.566,-45.8,-44.852,-43.911,-43.154,-42.626,-42.227,-41.837,-41.345,-40.661,-39.719,-38.458,-36.818,-34.772,-32.334,-29.516,-26.346,-23.059,-20.122,-18.029,-17.241,-17.714,-18.847,-19.981,-20.491,-20.225,-19.546,-18.874,-18.614,-19.115,-20.659,-23.527,-27.969,-33.713,-39.909,-45.644,-50.052,-52.865,-54.481,-55.365,-55.96,-56.504,-57.001,-57.437,-57.799,-58.075,-58.25,-58.31,-58.297,-58.295,-58.296,-58.296
-81.153,-81.038,-80.909,-80.749,-80.544,-80.281,-79.946,-79.524,-79.005,-78.411,-77.806,-77.258,-76.83,-76.526,-76.286,-76.043,-75.734,-75.335,-74.871,-74.368,-73.854,-73.329,-72.769,-72.147,-71.437,-70.633,-69.755,-68.824,-67.861,-66.878,-65.876,-64.857,-63.822,-62.788,-61.783,-60.841,-59.99,-59.209,-58.419,-57.536,-56.479,-55.207,-53.724,-52.036,-50.154,-48.191,-46.369,-44.922,-44.072,-43.863,-44.138,-44.721,-45.444,-46.202,-46.961,-47.693,-48.372,-48.979,-49.508,-49.954,-50.311,-50.59,-50.82,-51.03,-51.25,-51.478,-51.684,-51.831,-51.888,-51.883,-51.91,-52.071,-52.46,-53.061,-53.738,-54.342,-54.732,-54.867,-54.816,-54.664,-54.486,-54.309,-54.107,-53.843,-53.487,-53.052,-52.597,-52.189,-51.887,-51.686,-51.506,-51.256,-50.856,-50.314,-49.739,-49.251,-48.963,-48.879,-48.883,-48.844,-48.643,-48.254,-47.759,-47.251,-46.818,-46.482,-46.192,-45.89,-45.523,-45.084,-44.616,-44.169,-43.791,-43.495,-43.259,-43.056,-42.862,-42.484,-42.445,-71.375,-81.138,-79.987,-80,-80,-80,-80,-80,-80,-80,-80,-80,-80,-80,-80,-80,-80,-80,-79.994,-80.366,-79.48,-45.359,-35.83,-36.26,-35.479,-34.644,-33.774,-32.913,-32.102,-31.385,-30.785,-30.308,-29.959,-29.74,-29.633,-29.595,-29.578,-29.541,-29.465,-29.367,-29.265,-29.175,-29.1,-29.023,-28.927,-28.797,-28.628,-28.429,-28.211,-27.985,-27.791,-27.698,-27.78,-28.104,-28.67,-29.402,-30.215,-31.028,-31.813,-32.595,-33.407,-34.277,-35.181,-36.033,-36.742,-37.223,-37.481,-37.618,-37.747,-37.976,-38.348,-38.831,-39.387,-39.982,-40.593,-41.216,-41.851,-42.494,-43.139,-43.778,-44.402,-45,-45.566,-46.094,-46.58,-47.015,-47.355,-47.512,-47.394,-46.915,-46.117,-45.18,-44.299,-43.658,-43.3,-43.117,-42.98,-42.767,-42.363,-41.662,-40.56,-38.954,-36.799,-34.113,-30.917,-27.247,-23.396,-19.937,-17.482,-16.597,-17.262,-18.799,-20.464,-21.551,-21.828,-21.591,-21.188,-20.959,-21.251,-22.417,-24.817,-28.778,-34.08,-39.906,-45.374,-49.644,-52.443,-54.121,-55.095,-55.762,-56.334,-56.824,-57.223,-57.527,-57.731,-57.828,-57.809,-57.757,-57.756,-57.757,-57.757
-80.969,-80.689,-80.483,-80.311,-80.141,-79.944,-79.691,-79.349,-78.894,-78.341,-77.762,-77.23,-76.815,-76.526,-76.3,-76.068,-75.766,-75.366,-74.887,-74.35,-73.775,-73.161,-72.484,-71.718,-70.838,-69.86,-68.846,-67.859,-66.96,-66.153,-65.376,-64.561,-63.646,-62.631,-61.591,-60.606,-59.751,-59.018,-58.306,-57.502,-56.501,-55.249,-53.749,-52.011,-50.049,-47.987,-46.069,-44.554,-43.687,-43.511,-43.851,-44.509,-45.296,-46.095,-46.876,-47.615,-48.29,-48.884,-49.394,-49.817,-50.149,-50.408,-50.633,-50.864,-51.141,-51.453,-51.737,-51.926,-51.958,-51.865,-51.79,-51.885,-52.293,-53.001,-53.831,-54.582,-55.067,-55.232,-55.169,-54.986,-54.784,-54.598,-54.388,-54.107,-53.711,-53.212,-52.686,-52.212,-51.868,-51.648,-51.463,-51.212,-50.802,-50.243,-49.658,-49.182,-48.942,-48.935,-49.017,-49.031,-48.825,-48.377,-47.806,-47.243,-46.813,-46.54,-46.338,-46.111,-45.767,-45.29,-44.752,-44.229,-43.797,-43.479,-43.247,-43.066,-42.902,-41.622,-52.205,-80.463,-80.12,-80,-80,-80,-80,-80,-80,-80,-80,-80,-80,-80,-80,-80,-80,-80,-80,-80,-79.975,-81.707,-64.661,-35.234,-35.985,-35.403,-34.693,-33.924,-33.13,-32.346,-31.609,-30.95,-30.403,-30,-29.769,-29.698,-29.728,-29.793,-29.831,-29.821,-29.782,-29.739,-29.717,-29.714,-29.707,-29.668,-29.571,-29.404,-29.168,-28.865,-28.501,-28.131,-27.864,-27.813,-28.087,-28.688,-29.5,-30.397,-31.259,-32.04,-32.784,-33.539,-34.352,-35.209,-36.03,-36.727,-37.22,-37.508,-37.684,-37.849,-38.098,-38.476,-38.963,-39.539,-40.181,-40.869,-41.59,-42.328,-43.069,-43.799,-44.507,-45.182,-45.811,-46.388,-46.903,-47.352,-47.726,-47.987,-48.064,-47.879,-47.365,-46.571,-45.677,-44.876,-44.352,-44.147,-44.146,-44.22,-44.24,-44.076,-43.592,-42.653,-41.126,-38.957,-36.172,-32.804,-28.901,-24.782,-21.062,-18.394,-17.387,-18.051,-19.73,-21.701,-23.271,-24.16,-24.538,-24.616,-24.61,-24.822,-25.66,-27.544,-30.862,-35.467,-40.624,-45.534,-49.44,-52.08,-53.743,-54.774,-55.504,-56.11,-56.606,-56.987,-57.253,-57.403,-57.434,-57.34,-57.245,-57.246,-57.246,-57.246
-80.718,-80.374,-80.13,-79.942,-79.777,-79.602,-79.384,-79.093,-78.697,-78.213,-77.706,-77.247,-76.902,-76.673,-76.491,-76.277,-75.959,-75.51,-74.957,-74.331,-73.662,-72.954,-72.188,-71.337,-70.382,-69.344,-68.298,-67.322,-66.488,-65.791,-65.137,-64.422,-63.551,-62.523,-61.44,-60.419,-59.565,-58.879,-58.239,-57.51,-56.566,-55.344,-53.857,-52.124,-50.167,-48.115,-46.213,-44.716,-43.869,-43.712,-44.063,-44.718,-45.48,-46.236,-46.966,-47.66,-48.306,-48.892,-49.406,-49.838,-50.175,-50.434,-50.656,-50.888,-51.171,-51.495,-51.788,-51.973,-51.979,-51.845,-51.728,-51.8,-52.218,-52.974,-53.871,-54.69,-55.228,-55.422,-55.371,-55.188,-54.981,-54.787,-54.565,-54.262,-53.835,-53.298,-52.731,-52.223,-51.858,-51.631,-51.449,-51.203,-50.797,-50.237,-49.649,-49.174,-48.939,-48.944,-49.04,-49.067,-48.872,-48.431,-47.862,-47.299,-46.868,-46.594,-46.39,-46.161,-45.814,-45.337,-44.798,-44.277,-43.849,-43.538,-43.308,-43.123,-42.942,-41.158,-60.02,-81.664,-79.987,-80,-80,-80,-80,-80,-80,-80,-80,-80,-80,-80,-80,-80,-80,-80,-80,-80,-79.999,-80.31,-79.212,-45.023,-34.858,-35.32,-34.657,-33.915,-33.143,-32.392,-31.713,-31.137,-30.678,-30.348,-30.156,-30.088,-30.1,-30.148,-30.188,-30.202,-30.205,-30.212,-30.239,-30.28,-30.311,-30.303,-30.23,-30.074,-29.83,-29.491,-29.056,-28.585,-28.21,-28.068,-28.29,-28.88,-29.704,-30.613,-31.465,-32.21,-32.902,-33.602,-34.369,-35.193,-35.995,-36.685,-37.18,-37.481,-37.679,-37.874,-38.162,-38.586,-39.123,-39.746,-40.431,-41.161,-41.931,-42.735,-43.568,-44.413,-45.237,-46.007,-46.691,-47.276,-47.769,-48.18,-48.516,-48.747,-48.805,-48.613,-48.106,-47.335,-46.48,-45.738,-45.292,-45.185,-45.3,-45.504,-45.666,-45.651,-45.315,-44.516,-43.116,-41.065,-38.409,-35.202,-31.512,-27.637,-24.133,-21.586,-20.546,-21.045,-22.549,-24.459,-26.207,-27.51,-28.402,-28.95,-29.225,-29.459,-30.068,-31.485,-34.114,-37.874,-42.15,-46.269,-49.592,-51.892,-53.401,-54.396,-55.139,-55.772,-56.297,-56.703,-56.983,-57.128,-57.128,-56.967,-56.824,-56.825,-56.826,-56.826
-80.401,-80.114,-79.887,-79.69,-79.503,-79.306,-79.077,-78.798,-78.451,-78.049,-77.647,-77.302,-77.064,-76.924,-76.8,-76.602,-76.246,-75.709,-75.037,-74.284,-73.501,-72.707,-71.886,-71.02,-70.093,-69.12,-68.159,-67.267,-66.5,-65.842,-65.201,-64.478,-63.579,-62.511,-61.39,-60.347,-59.502,-58.853,-58.267,-57.596,-56.697,-55.508,-54.057,-52.377,-50.506,-48.569,-46.786,-45.389,-44.596,-44.44,-44.745,-45.316,-45.967,-46.598,-47.209,-47.81,-48.407,-48.992,-49.535,-50.008,-50.381,-50.66,-50.883,-51.093,-51.33,-51.589,-51.815,-51.951,-51.941,-51.824,-51.74,-51.841,-52.266,-53.003,-53.87,-54.664,-55.198,-55.411,-55.391,-55.238,-55.048,-54.854,-54.619,-54.299,-53.856,-53.306,-52.732,-52.222,-51.858,-51.639,-51.466,-51.235,-50.846,-50.302,-49.722,-49.234,-48.959,-48.903,-48.943,-48.94,-48.767,-48.396,-47.909,-47.403,-46.967,-46.625,-46.327,-46.019,-45.645,-45.201,-44.734,-44.294,-43.931,-43.654,-43.426,-43.209,-42.962,-41.152,-63.605,-81.525,-80,-80,-80,-80,-80,-80,-80,-80,-80,-80,-80,-80,-80,-80,-80,-80,-80,-80,-80,-79.957,-82.144,-60.318,-34.065,-35.245,-34.553,-33.764,-32.969,-32.256,-31.712,-31.357,-31.141,-31.009,-30.906,-30.808,-30.721,-30.655,-30.62,-30.617,-30.641,-30.684,-30.74,-30.796,-30.831,-30.825,-30.758,-30.614,-30.383,-30.052,-29.615,-29.132,-28.732,-28.555,-28.732,-29.269,-30.033,-30.876,-31.66,-32.339,-32.971,-33.626,-34.367,-35.185,-35.99,-36.683,-37.173,-37.46,-37.65,-37.859,-38.197,-38.701,-39.327,-40.023,-40.741,-41.465,-42.224,-43.046,-43.958,-44.941,-45.926,-46.836,-47.599,-48.196,-48.662,-49.041,-49.37,-49.63,-49.739,-49.607,-49.152,-48.419,-47.594,-46.879,-46.464,-46.393,-46.547,-46.792,-46.997,-47.03,-46.767,-46.079,-44.845,-43.038,-40.734,-38.018,-34.981,-31.862,-29.058,-26.986,-26.038,-26.259,-27.306,-28.798,-30.366,-31.781,-32.963,-33.846,-34.375,-34.697,-35.183,-36.227,-38.2,-41.068,-44.355,-47.539,-50.123,-51.934,-53.155,-54.009,-54.705,-55.346,-55.914,-56.382,-56.723,-56.911,-56.918,-56.706,-56.51,-56.511,-56.512,-56.512
-79.987,-79.837,-79.672,-79.487,-79.28,-79.049,-78.792,-78.507,-78.194,-77.868,-77.565,-77.322,-77.175,-77.098,-77.004,-76.799,-76.392,-75.768,-74.989,-74.129,-73.257,-72.405,-71.571,-70.745,-69.92,-69.101,-68.305,-67.552,-66.859,-66.203,-65.517,-64.732,-63.78,-62.682,-61.55,-60.507,-59.668,-59.03,-58.457,-57.804,-56.928,-55.774,-54.38,-52.792,-51.06,-49.297,-47.69,-46.432,-45.706,-45.534,-45.756,-46.198,-46.689,-47.152,-47.607,-48.085,-48.613,-49.185,-49.755,-50.273,-50.692,-51.001,-51.23,-51.411,-51.574,-51.727,-51.848,-51.915,-51.907,-51.859,-51.87,-52.044,-52.478,-53.152,-53.92,-54.619,-55.097,-55.304,-55.31,-55.192,-55.026,-54.837,-54.596,-54.268,-53.823,-53.279,-52.716,-52.217,-51.862,-51.648,-51.481,-51.262,-50.893,-50.375,-49.806,-49.3,-48.961,-48.803,-48.742,-48.68,-48.526,-48.249,-47.88,-47.458,-47.021,-46.589,-46.165,-45.749,-45.342,-44.951,-44.588,-44.264,-43.993,-43.761,-43.535,-43.276,-42.943,-41.072,-65.093,-81.489,-80,-80,-80,-80,-80,-80,-80,-80,-80,-80,-80,-80,-80,-80,-80,-80,-80,-80,-80,-80.152,-80.443,-48.259,-34.58,-35.239,-34.469,-33.603,-32.766,-32.093,-31.709,-31.621,-31.702,-31.811,-31.815,-31.676,-31.46,-31.246,-31.106,-31.066,-31.097,-31.165,-31.237,-31.29,-31.312,-31.291,-31.216,-31.074,-30.856,-30.549,-30.145,-29.697,-29.323,-29.15,-29.295,-29.763,-30.435,-31.177,-31.863,-32.457,-33.022,-33.633,-34.356,-35.179,-35.999,-36.701,-37.182,-37.445,-37.615,-37.828,-38.214,-38.807,-39.532,-40.303,-41.042,-41.736,-42.453,-43.267,-44.245,-45.37,-46.527,-47.59,-48.442,-49.054,-49.497,-49.852,-50.194,-50.516,-50.715,-50.682,-50.315,-49.65,-48.872,-48.184,-47.779,-47.703,-47.84,-48.062,-48.24,-48.261,-48.025,-47.432,-46.389,-44.899,-43.071,-41.023,-38.876,-36.783,-34.936,-33.532,-32.758,-32.657,-33.111,-33.987,-35.152,-36.457,-37.735,-38.815,-39.54,-39.968,-40.398,-41.154,-42.54,-44.556,-46.867,-49.103,-50.915,-52.187,-53.066,-53.727,-54.333,-54.954,-55.55,-56.075,-56.483,-56.725,-56.756,-56.513,-56.276,-56.278,-56.279,-56.279
-79.441,-79.459,-79.391,-79.252,-79.057,-78.819,-78.549,-78.261,-77.968,-77.686,-77.434,-77.231,-77.095,-76.997,-76.861,-76.603,-76.145,-75.478,-74.665,-73.778,-72.887,-72.034,-71.23,-70.485,-69.806,-69.185,-68.598,-68.016,-67.411,-66.757,-66.024,-65.182,-64.207,-63.127,-62.032,-61.018,-60.177,-59.5,-58.876,-58.18,-57.295,-56.175,-54.858,-53.391,-51.821,-50.244,-48.814,-47.689,-47.02,-46.819,-46.947,-47.248,-47.574,-47.865,-48.16,-48.506,-48.945,-49.475,-50.039,-50.575,-51.026,-51.365,-51.607,-51.766,-51.86,-51.905,-51.922,-51.931,-51.951,-52.014,-52.163,-52.444,-52.896,-53.491,-54.125,-54.683,-55.059,-55.221,-55.219,-55.115,-54.965,-54.785,-54.549,-54.227,-53.79,-53.26,-52.71,-52.218,-51.86,-51.634,-51.456,-51.233,-50.877,-50.381,-49.826,-49.304,-48.898,-48.631,-48.456,-48.319,-48.167,-47.966,-47.702,-47.363,-46.937,-46.441,-45.921,-45.424,-44.999,-44.661,-44.392,-44.173,-43.981,-43.791,-43.565,-43.269,-42.865,-40.866,-64.337,-81.518,-80,-80,-80,-80,-80,-80,-80,-80,-80,-80,-80,-80,-80,-80,-80,-80,-80,-80,-79.986,-81.381,-69.217,-36.03,-35.829,-35.328,-34.502,-33.577,-32.711,-32.072,-31.819,-31.944,-32.261,-32.563,-32.655,-32.489,-32.176,-31.847,-31.624,-31.55,-31.581,-31.663,-31.745,-31.796,-31.805,-31.766,-31.67,-31.512,-31.286,-30.985,-30.608,-30.201,-29.867,-29.715,-29.846,-30.262,-30.854,-31.501,-32.09,-32.594,-33.084,-33.641,-34.339,-35.162,-35.995,-36.709,-37.187,-37.433,-37.586,-37.802,-38.226,-38.886,-39.685,-40.511,-41.26,-41.924,-42.602,-43.408,-44.443,-45.688,-46.992,-48.188,-49.12,-49.751,-50.182,-50.525,-50.887,-51.27,-51.562,-51.64,-51.391,-50.836,-50.151,-49.526,-49.14,-49.041,-49.13,-49.291,-49.412,-49.4,-49.182,-48.683,-47.839,-46.678,-45.341,-43.975,-42.726,-41.665,-40.782,-40.061,-39.487,-39.096,-38.974,-39.215,-39.903,-40.974,-42.204,-43.349,-44.183,-44.688,-45.086,-45.622,-46.525,-47.816,-49.284,-50.697,-51.833,-52.629,-53.198,-53.669,-54.166,-54.729,-55.307,-55.84,-56.27,-56.539,-56.588,-56.34,-56.09,-56.092,-56.093,-56.093
-78.734,-78.904,-78.955,-78.911,-78.788,-78.601,-78.366,-78.097,-77.812,-77.52,-77.232,-76.954,-76.696,-76.44,-76.146,-75.77,-75.272,-74.646,-73.927,-73.151,-72.357,-71.579,-70.854,-70.215,-69.693,-69.277,-68.902,-68.5,-68.006,-67.389,-66.659,-65.827,-64.907,-63.928,-62.939,-61.991,-61.129,-60.348,-59.585,-58.767,-57.828,-56.741,-55.523,-54.194,-52.779,-51.354,-50.051,-49.012,-48.368,-48.129,-48.171,-48.356,-48.55,-48.707,-48.87,-49.092,-49.422,-49.863,-50.361,-50.86,-51.306,-51.664,-51.927,-52.089,-52.144,-52.118,-52.069,-52.057,-52.141,-52.346,-52.661,-53.069,-53.555,-54.079,-54.575,-54.973,-55.209,-55.271,-55.206,-55.069,-54.91,-54.74,-54.526,-54.228,-53.811,-53.291,-52.74,-52.233,-51.844,-51.576,-51.355,-51.101,-50.737,-50.254,-49.712,-49.181,-48.728,-48.376,-48.106,-47.891,-47.708,-47.526,-47.308,-47.02,-46.626,-46.137,-45.611,-45.113,-44.704,-44.402,-44.179,-44.005,-43.848,-43.675,-43.451,-43.14,-42.709,-40.553,-60.582,-81.734,-79.984,-80,-80,-80,-80,-80,-80,-80,-80,-80,-80,-80,-80,-80,-80,-80,-80,-80,-80.089,-80.993,-50.413,-35.137,-36.222,-35.562,-34.742,-33.822,-32.967,-32.354,-32.148,-32.338,-32.724,-33.085,-33.213,-33.055,-32.733,-32.387,-32.15,-32.07,-32.101,-32.189,-32.282,-32.343,-32.357,-32.309,-32.185,-31.981,-31.705,-31.365,-30.97,-30.569,-30.254,-30.122,-30.262,-30.67,-31.234,-31.835,-32.356,-32.778,-33.185,-33.67,-34.32,-35.123,-35.954,-36.677,-37.164,-37.416,-37.576,-37.801,-38.239,-38.919,-39.737,-40.575,-41.325,-41.981,-42.658,-43.479,-44.56,-45.882,-47.275,-48.552,-49.538,-50.194,-50.632,-50.979,-51.353,-51.768,-52.121,-52.296,-52.184,-51.797,-51.278,-50.78,-50.453,-50.339,-50.368,-50.456,-50.524,-50.5,-50.324,-49.935,-49.28,-48.405,-47.469,-46.641,-46.084,-45.807,-45.657,-45.461,-45.063,-44.484,-43.951,-43.709,-43.99,-44.796,-45.879,-46.964,-47.792,-48.302,-48.651,-49.018,-49.574,-50.35,-51.227,-52.069,-52.75,-53.237,-53.607,-53.946,-54.335,-54.794,-55.277,-55.728,-56.095,-56.325,-56.364,-56.143,-55.922,-55.923,-55.924,-55.924
-77.906,-78.181,-78.354,-78.439,-78.44,-78.361,-78.208,-77.984,-77.693,-77.34,-76.931,-76.471,-75.966,-75.429,-74.878,-74.333,-73.812,-73.313,-72.81,-72.276,-71.686,-71.056,-70.447,-69.924,-69.548,-69.31,-69.123,-68.892,-68.525,-67.995,-67.337,-66.598,-65.819,-65.021,-64.198,-63.343,-62.448,-61.513,-60.542,-59.54,-58.514,-57.456,-56.344,-55.158,-53.877,-52.555,-51.321,-50.312,-49.659,-49.376,-49.349,-49.451,-49.562,-49.635,-49.709,-49.829,-50.038,-50.344,-50.716,-51.118,-51.515,-51.875,-52.164,-52.352,-52.407,-52.357,-52.287,-52.293,-52.462,-52.813,-53.289,-53.824,-54.353,-54.825,-55.203,-55.45,-55.533,-55.459,-55.286,-55.075,-54.884,-54.721,-54.535,-54.272,-53.881,-53.367,-52.802,-52.261,-51.815,-51.475,-51.183,-50.871,-50.478,-49.994,-49.462,-48.934,-48.459,-48.058,-47.719,-47.429,-47.176,-46.939,-46.693,-46.41,-46.066,-45.665,-45.241,-44.835,-44.483,-44.199,-43.968,-43.774,-43.597,-43.414,-43.19,-42.889,-42.479,-40.78,-52.324,-81.178,-80.343,-79.978,-80,-80,-80,-80,-80,-80,-80,-80,-80,-80,-80,-80,-80,-80,-80,-79.993,-81.105,-71.777,-37.701,-36.658,-36.515,-35.94,-35.199,-34.359,-33.565,-32.971,-32.721,-32.814,-33.086,-33.358,-33.461,-33.347,-33.109,-32.851,-32.674,-32.617,-32.648,-32.732,-32.834,-32.919,-32.955,-32.91,-32.753,-32.48,-32.117,-31.691,-31.232,-30.797,-30.474,-30.354,-30.522,-30.963,-31.554,-32.158,-32.647,-33.003,-33.323,-33.721,-34.299,-35.053,-35.858,-36.574,-37.074,-37.351,-37.537,-37.777,-38.21,-38.863,-39.649,-40.465,-41.217,-41.902,-42.623,-43.491,-44.612,-45.96,-47.374,-48.673,-49.689,-50.382,-50.855,-51.225,-51.604,-52.012,-52.378,-52.615,-52.645,-52.471,-52.182,-51.879,-51.655,-51.547,-51.523,-51.547,-51.582,-51.579,-51.476,-51.21,-50.723,-50.064,-49.399,-48.906,-48.752,-48.918,-49.178,-49.286,-49.012,-48.369,-47.64,-47.135,-47.145,-47.711,-48.59,-49.514,-50.228,-50.655,-50.916,-51.154,-51.5,-51.991,-52.556,-53.114,-53.586,-53.951,-54.247,-54.521,-54.814,-55.135,-55.456,-55.745,-55.97,-56.1,-56.104,-55.939,-55.784,-55.785,-55.786,-55.786
-77.075,-77.394,-77.66,-77.865,-77.998,-78.043,-77.986,-77.812,-77.507,-77.068,-76.503,-75.82,-75.03,-74.178,-73.349,-72.63,-72.106,-71.774,-71.542,-71.304,-70.964,-70.511,-70.03,-69.616,-69.357,-69.254,-69.212,-69.123,-68.887,-68.478,-67.947,-67.357,-66.766,-66.178,-65.538,-64.784,-63.86,-62.771,-61.593,-60.405,-59.286,-58.247,-57.23,-56.168,-55.002,-53.76,-52.57,-51.572,-50.896,-50.562,-50.47,-50.507,-50.563,-50.593,-50.617,-50.663,-50.755,-50.908,-51.119,-51.386,-51.705,-52.048,-52.358,-52.578,-52.653,-52.605,-52.54,-52.572,-52.808,-53.265,-53.853,-54.474,-55.033,-55.47,-55.765,-55.901,-55.861,-55.671,-55.397,-55.11,-54.879,-54.709,-54.54,-54.303,-53.935,-53.433,-52.86,-52.288,-51.785,-51.365,-50.987,-50.604,-50.17,-49.677,-49.155,-48.638,-48.157,-47.726,-47.332,-46.963,-46.606,-46.257,-45.921,-45.606,-45.316,-45.051,-44.8,-44.552,-44.295,-44.03,-43.767,-43.517,-43.292,-43.081,-42.855,-42.579,-42.222,-41.703,-40.865,-59.509,-80.663,-80.482,-79.969,-80,-80,-80,-80,-80,-80,-80,-80,-80,-80,-80,-80,-80,-80,-80.021,-81.551,-53.693,-35.702,-37.248,-36.891,-36.415,-35.796,-35.082,-34.381,-33.809,-33.473,-33.382,-33.442,-33.541,-33.579,-33.52,-33.404,-33.281,-33.195,-33.168,-33.193,-33.261,-33.363,-33.468,-33.527,-33.485,-33.293,-32.946,-32.488,-31.969,-31.439,-30.964,-30.629,-30.519,-30.716,-31.197,-31.822,-32.442,-32.915,-33.22,-33.465,-33.776,-34.268,-34.946,-35.69,-36.369,-36.86,-37.152,-37.361,-37.614,-38.034,-38.651,-39.397,-40.195,-40.97,-41.721,-42.524,-43.462,-44.612,-45.95,-47.336,-48.619,-49.658,-50.413,-50.958,-51.382,-51.766,-52.14,-52.474,-52.733,-52.885,-52.927,-52.891,-52.811,-52.72,-52.642,-52.586,-52.565,-52.584,-52.617,-52.593,-52.441,-52.093,-51.591,-51.097,-50.785,-50.816,-51.162,-51.583,-51.819,-51.624,-51.005,-50.24,-49.641,-49.499,-49.864,-50.522,-51.23,-51.757,-52.037,-52.179,-52.309,-52.549,-52.933,-53.402,-53.885,-54.318,-54.672,-54.959,-55.198,-55.403,-55.582,-55.73,-55.841,-55.91,-55.932,-55.902,-55.81,-55.738,-55.739,-55.74,-55.74
-76.368,-76.658,-76.953,-77.228,-77.45,-77.585,-77.6,-77.463,-77.14,-76.621,-75.919,-75.047,-74.023,-72.92,-71.875,-71.033,-70.526,-70.355,-70.368,-70.396,-70.283,-69.993,-69.626,-69.296,-69.11,-69.081,-69.121,-69.13,-69.012,-68.743,-68.373,-67.96,-67.558,-67.155,-66.666,-65.999,-65.068,-63.885,-62.571,-61.258,-60.071,-59.037,-58.079,-57.106,-56.034,-54.877,-53.75,-52.78,-52.087,-51.698,-51.532,-51.499,-51.513,-51.527,-51.535,-51.538,-51.535,-51.542,-51.589,-51.71,-51.933,-52.24,-52.555,-52.797,-52.891,-52.85,-52.785,-52.819,-53.064,-53.536,-54.139,-54.769,-55.321,-55.736,-55.996,-56.091,-56.01,-55.78,-55.468,-55.147,-54.883,-54.687,-54.5,-54.259,-53.903,-53.425,-52.872,-52.302,-51.765,-51.278,-50.82,-50.366,-49.891,-49.389,-48.877,-48.373,-47.892,-47.435,-46.986,-46.525,-46.036,-45.532,-45.064,-44.683,-44.439,-44.326,-44.279,-44.223,-44.091,-43.865,-43.58,-43.279,-43.001,-42.757,-42.524,-42.275,-41.988,-41.68,-41.133,-39.604,-56.056,-79.694,-80.714,-79.961,-80,-80,-80,-80,-80,-80,-80,-80,-80,-80,-80,-80,-79.995,-80.903,-73.897,-39.509,-37.345,-37.581,-37.313,-36.936,-36.445,-35.871,-35.279,-34.742,-34.327,-34.055,-33.895,-33.811,-33.769,-33.746,-33.734,-33.725,-33.714,-33.703,-33.707,-33.743,-33.824,-33.927,-33.989,-33.939,-33.714,-33.308,-32.782,-32.202,-31.637,-31.155,-30.831,-30.74,-30.951,-31.435,-32.055,-32.659,-33.108,-33.377,-33.573,-33.817,-34.221,-34.796,-35.437,-36.028,-36.46,-36.727,-36.93,-37.185,-37.601,-38.21,-38.957,-39.782,-40.625,-41.479,-42.388,-43.405,-44.576,-45.879,-47.212,-48.468,-49.542,-50.397,-51.063,-51.579,-51.982,-52.305,-52.571,-52.805,-53.032,-53.251,-53.439,-53.571,-53.623,-53.601,-53.548,-53.51,-53.527,-53.589,-53.624,-53.554,-53.308,-52.919,-52.532,-52.306,-52.386,-52.746,-53.169,-53.416,-53.264,-52.713,-52.011,-51.428,-51.223,-51.44,-51.895,-52.377,-52.689,-52.784,-52.78,-52.815,-53.015,-53.41,-53.921,-54.456,-54.928,-55.297,-55.57,-55.761,-55.884,-55.95,-55.972,-55.962,-55.932,-55.895,-55.863,-55.848,-55.851,-55.851,-55.851,-55.851
-75.903,-76.078,-76.311,-76.562,-76.783,-76.931,-76.961,-76.826,-76.485,-75.922,-75.152,-74.196,-73.076,-71.878,-70.761,-69.892,-69.427,-69.363,-69.523,-69.708,-69.735,-69.551,-69.257,-68.97,-68.798,-68.766,-68.81,-68.854,-68.827,-68.703,-68.507,-68.269,-68.015,-67.721,-67.309,-66.692,-65.793,-64.628,-63.319,-62.001,-60.8,-59.753,-58.797,-57.857,-56.864,-55.821,-54.811,-53.922,-53.242,-52.792,-52.531,-52.406,-52.371,-52.381,-52.402,-52.398,-52.339,-52.234,-52.143,-52.13,-52.254,-52.505,-52.797,-53.034,-53.126,-53.076,-52.984,-52.964,-53.121,-53.475,-53.955,-54.479,-54.967,-55.366,-55.654,-55.807,-55.808,-55.668,-55.435,-55.159,-54.888,-54.636,-54.377,-54.081,-53.719,-53.287,-52.803,-52.289,-51.767,-51.248,-50.733,-50.221,-49.713,-49.21,-48.71,-48.217,-47.729,-47.236,-46.716,-46.145,-45.501,-44.82,-44.194,-43.723,-43.502,-43.523,-43.669,-43.811,-43.827,-43.677,-43.414,-43.099,-42.791,-42.517,-42.271,-42.042,-41.822,-41.606,-41.41,-41.08,-39.363,-52.907,-78.324,-81.407,-80.033,-79.991,-80,-80,-80,-80,-80,-80,-80,-80,-80,-80,-79.997,-81.762,-57.005,-36.48,-38.176,-37.992,-37.76,-37.452,-37.065,-36.612,-36.128,-35.65,-35.212,-34.84,-34.543,-34.333,-34.219,-34.187,-34.204,-34.23,-34.231,-34.199,-34.161,-34.144,-34.176,-34.239,-34.266,-34.186,-33.932,-33.502,-32.965,-32.397,-31.871,-31.451,-31.186,-31.128,-31.322,-31.738,-32.265,-32.783,-33.176,-33.425,-33.611,-33.824,-34.151,-34.599,-35.086,-35.522,-35.823,-35.995,-36.141,-36.378,-36.814,-37.478,-38.311,-39.248,-40.223,-41.215,-42.244,-43.338,-44.52,-45.777,-47.054,-48.292,-49.434,-50.439,-51.281,-51.936,-52.383,-52.65,-52.818,-52.976,-53.205,-53.52,-53.86,-54.154,-54.339,-54.404,-54.399,-54.382,-54.407,-54.471,-54.517,-54.477,-54.29,-53.983,-53.675,-53.497,-53.571,-53.872,-54.222,-54.419,-54.281,-53.806,-53.199,-52.686,-52.48,-52.613,-52.92,-53.213,-53.32,-53.216,-53.049,-52.985,-53.176,-53.643,-54.263,-54.893,-55.399,-55.729,-55.917,-56.01,-56.05,-56.064,-56.063,-56.055,-56.049,-56.054,-56.079,-56.136,-56.179,-56.178,-56.178,-56.178
-75.662,-75.659,-75.75,-75.884,-76.014,-76.092,-76.072,-75.907,-75.55,-74.986,-74.235,-73.317,-72.256,-71.136,-70.103,-69.312,-68.908,-68.886,-69.076,-69.291,-69.353,-69.21,-68.946,-68.66,-68.447,-68.342,-68.316,-68.336,-68.367,-68.383,-68.36,-68.279,-68.119,-67.85,-67.432,-66.826,-65.994,-64.955,-63.79,-62.588,-61.433,-60.361,-59.357,-58.401,-57.474,-56.578,-55.74,-54.987,-54.349,-53.841,-53.467,-53.231,-53.133,-53.143,-53.193,-53.212,-53.133,-52.959,-52.768,-52.647,-52.677,-52.858,-53.098,-53.298,-53.363,-53.282,-53.134,-53.009,-52.991,-53.112,-53.348,-53.667,-54.04,-54.43,-54.795,-55.094,-55.285,-55.35,-55.298,-55.141,-54.888,-54.559,-54.184,-53.79,-53.405,-53.035,-52.659,-52.251,-51.79,-51.276,-50.732,-50.184,-49.657,-49.158,-48.673,-48.186,-47.68,-47.138,-46.534,-45.843,-45.046,-44.193,-43.414,-42.849,-42.626,-42.741,-43.039,-43.352,-43.518,-43.476,-43.282,-43,-42.693,-42.399,-42.135,-41.914,-41.749,-41.631,-41.534,-41.431,-41.237,-39.567,-48.462,-71.25,-81.438,-80.627,-79.97,-79.999,-80,-80,-80,-80,-80,-80,-80,-79.967,-81.058,-74.988,-41.391,-38.312,-38.645,-38.447,-38.215,-37.941,-37.621,-37.258,-36.867,-36.466,-36.071,-35.7,-35.374,-35.117,-34.948,-34.862,-34.824,-34.795,-34.739,-34.65,-34.549,-34.465,-34.421,-34.405,-34.36,-34.228,-33.954,-33.539,-33.052,-32.567,-32.155,-31.86,-31.7,-31.686,-31.83,-32.109,-32.462,-32.824,-33.133,-33.375,-33.585,-33.805,-34.072,-34.383,-34.684,-34.916,-35.028,-35.048,-35.095,-35.298,-35.778,-36.559,-37.558,-38.68,-39.835,-40.98,-42.124,-43.281,-44.465,-45.678,-46.91,-48.151,-49.39,-50.579,-51.63,-52.454,-52.965,-53.182,-53.239,-53.281,-53.445,-53.768,-54.169,-54.559,-54.851,-55.019,-55.1,-55.139,-55.177,-55.22,-55.233,-55.176,-55.016,-54.775,-54.54,-54.409,-54.467,-54.693,-54.947,-55.073,-54.928,-54.515,-54.003,-53.575,-53.407,-53.513,-53.734,-53.892,-53.823,-53.527,-53.191,-53.021,-53.21,-53.771,-54.515,-55.234,-55.731,-55.946,-55.97,-55.911,-55.868,-55.891,-55.969,-56.084,-56.222,-56.365,-56.499,-56.607,-56.651,-56.649,-56.649,-56.649
-75.474,-75.293,-75.217,-75.196,-75.189,-75.153,-75.048,-74.832,-74.466,-73.937,-73.263,-72.464,-71.564,-70.629,-69.775,-69.125,-68.792,-68.77,-68.918,-69.083,-69.117,-68.973,-68.712,-68.404,-68.12,-67.903,-67.768,-67.728,-67.794,-67.935,-68.076,-68.135,-68.034,-67.739,-67.269,-66.645,-65.889,-65.021,-64.062,-63.035,-61.96,-60.87,-59.809,-58.823,-57.955,-57.212,-56.56,-55.961,-55.381,-54.826,-54.348,-54.002,-53.84,-53.845,-53.922,-53.97,-53.892,-53.679,-53.422,-53.22,-53.166,-53.266,-53.436,-53.577,-53.6,-53.48,-53.27,-53.029,-52.816,-52.673,-52.632,-52.722,-52.967,-53.353,-53.814,-54.282,-54.688,-54.983,-55.133,-55.109,-54.883,-54.48,-53.984,-53.488,-53.076,-52.767,-52.499,-52.204,-51.819,-51.331,-50.78,-50.216,-49.682,-49.191,-48.716,-48.228,-47.699,-47.103,-46.42,-45.63,-44.718,-43.745,-42.863,-42.23,-41.995,-42.156,-42.543,-42.966,-43.247,-43.313,-43.207,-42.984,-42.698,-42.396,-42.115,-41.894,-41.768,-41.728,-41.72,-41.681,-41.558,-41.355,-39.919,-41.06,-57.477,-76.977,-81.595,-80.184,-79.979,-80,-80,-80,-80,-79.996,-80.062,-81.165,-79.711,-50.856,-38.34,-39.43,-39.156,-38.914,-38.668,-38.411,-38.132,-37.832,-37.516,-37.191,-36.865,-36.549,-36.256,-35.999,-35.791,-35.63,-35.496,-35.368,-35.223,-35.06,-34.891,-34.735,-34.606,-34.494,-34.362,-34.171,-33.884,-33.51,-33.108,-32.74,-32.469,-32.316,-32.264,-32.288,-32.368,-32.489,-32.647,-32.838,-33.058,-33.299,-33.548,-33.793,-34.021,-34.212,-34.341,-34.379,-34.306,-34.173,-34.118,-34.29,-34.825,-35.742,-36.924,-38.24,-39.565,-40.837,-42.064,-43.26,-44.438,-45.618,-46.825,-48.087,-49.425,-50.785,-52.028,-53.005,-53.579,-53.758,-53.713,-53.635,-53.703,-53.973,-54.366,-54.787,-55.148,-55.409,-55.584,-55.692,-55.752,-55.771,-55.743,-55.663,-55.524,-55.35,-55.194,-55.113,-55.159,-55.312,-55.468,-55.516,-55.354,-54.992,-54.565,-54.226,-54.112,-54.221,-54.395,-54.455,-54.238,-53.768,-53.271,-52.999,-53.186,-53.834,-54.693,-55.485,-55.947,-56.015,-55.845,-55.615,-55.493,-55.551,-55.746,-56.029,-56.35,-56.658,-56.905,-57.037,-57.053,-57.05,-57.05,-57.05
-75.153,-74.86,-74.654,-74.497,-74.356,-74.203,-74.008,-73.743,-73.378,-72.905,-72.339,-71.695,-70.991,-70.275,-69.627,-69.132,-68.871,-68.834,-68.918,-69.009,-68.996,-68.841,-68.576,-68.244,-67.887,-67.553,-67.301,-67.191,-67.278,-67.528,-67.813,-67.994,-67.939,-67.612,-67.081,-66.427,-65.726,-65.002,-64.227,-63.362,-62.377,-61.296,-60.211,-59.219,-58.41,-57.797,-57.299,-56.83,-56.307,-55.728,-55.178,-54.75,-54.534,-54.523,-54.607,-54.667,-54.589,-54.357,-54.06,-53.801,-53.675,-53.695,-53.785,-53.859,-53.835,-53.685,-53.433,-53.111,-52.752,-52.408,-52.153,-52.064,-52.215,-52.602,-53.14,-53.734,-54.292,-54.741,-55.023,-55.084,-54.874,-54.423,-53.852,-53.29,-52.86,-52.586,-52.387,-52.167,-51.837,-51.377,-50.835,-50.271,-49.74,-49.255,-48.782,-48.286,-47.729,-47.088,-46.353,-45.515,-44.566,-43.575,-42.683,-42.044,-41.802,-41.955,-42.341,-42.782,-43.107,-43.241,-43.209,-43.048,-42.796,-42.496,-42.206,-41.981,-41.877,-41.884,-41.929,-41.93,-41.808,-41.56,-41.285,-40.706,-39.14,-45.157,-65.848,-80.361,-81.768,-81.366,-81.038,-80.875,-81.385,-81.659,-80.954,-74.357,-53.584,-39.166,-40.266,-39.949,-39.631,-39.356,-39.108,-38.87,-38.625,-38.366,-38.098,-37.827,-37.559,-37.296,-37.041,-36.795,-36.56,-36.334,-36.112,-35.891,-35.666,-35.437,-35.209,-34.989,-34.782,-34.582,-34.371,-34.13,-33.841,-33.517,-33.203,-32.945,-32.789,-32.74,-32.759,-32.799,-32.82,-32.816,-32.824,-32.885,-33.036,-33.275,-33.555,-33.825,-34.034,-34.153,-34.174,-34.091,-33.901,-33.674,-33.563,-33.725,-34.313,-35.335,-36.649,-38.095,-39.52,-40.851,-42.104,-43.302,-44.47,-45.638,-46.847,-48.139,-49.55,-51.018,-52.376,-53.446,-54.059,-54.216,-54.108,-53.944,-53.92,-54.11,-54.445,-54.84,-55.218,-55.533,-55.777,-55.946,-56.037,-56.056,-56.02,-55.948,-55.858,-55.77,-55.705,-55.687,-55.734,-55.826,-55.897,-55.875,-55.696,-55.377,-55.026,-54.763,-54.699,-54.815,-54.95,-54.93,-54.592,-53.977,-53.345,-52.983,-53.158,-53.867,-54.808,-55.647,-56.069,-56.008,-55.671,-55.294,-55.102,-55.18,-55.464,-55.872,-56.328,-56.751,-57.065,-57.182,-57.153,-57.15,-57.151,-57.151
-74.529,-74.249,-74.009,-73.786,-73.565,-73.332,-73.074,-72.776,-72.426,-72.019,-71.562,-71.063,-70.531,-69.996,-69.516,-69.148,-68.949,-68.909,-68.954,-68.999,-68.963,-68.812,-68.557,-68.216,-67.808,-67.387,-67.046,-66.881,-66.982,-67.317,-67.718,-68.005,-68.004,-67.673,-67.109,-66.428,-65.735,-65.063,-64.366,-63.588,-62.676,-61.652,-60.616,-59.676,-58.934,-58.4,-57.983,-57.58,-57.097,-56.527,-55.963,-55.507,-55.257,-55.212,-55.264,-55.297,-55.2,-54.953,-54.638,-54.346,-54.165,-54.111,-54.122,-54.13,-54.069,-53.909,-53.659,-53.333,-52.946,-52.549,-52.232,-52.093,-52.22,-52.614,-53.174,-53.789,-54.353,-54.786,-55.044,-55.082,-54.861,-54.413,-53.853,-53.301,-52.873,-52.592,-52.383,-52.156,-51.829,-51.381,-50.857,-50.309,-49.787,-49.3,-48.818,-48.303,-47.72,-47.055,-46.314,-45.505,-44.638,-43.769,-43.004,-42.454,-42.223,-42.307,-42.584,-42.919,-43.183,-43.311,-43.309,-43.192,-42.973,-42.688,-42.401,-42.175,-42.072,-42.086,-42.135,-42.131,-41.991,-41.717,-41.401,-41.152,-41.081,-40.332,-40.134,-52.112,-63.717,-67.578,-71.708,-73.493,-67.417,-59.075,-51.324,-42.793,-39.86,-41.059,-40.749,-40.358,-40.011,-39.742,-39.526,-39.329,-39.122,-38.89,-38.641,-38.381,-38.118,-37.856,-37.595,-37.337,-37.08,-36.825,-36.569,-36.312,-36.051,-35.787,-35.522,-35.259,-34.998,-34.74,-34.48,-34.213,-33.934,-33.655,-33.403,-33.207,-33.094,-33.061,-33.073,-33.089,-33.074,-33.028,-32.994,-33.019,-33.148,-33.378,-33.66,-33.934,-34.148,-34.27,-34.294,-34.219,-34.043,-33.84,-33.757,-33.952,-34.573,-35.626,-36.96,-38.405,-39.802,-41.082,-42.278,-43.433,-44.587,-45.773,-47.018,-48.345,-49.774,-51.241,-52.586,-53.641,-54.248,-54.408,-54.298,-54.114,-54.042,-54.156,-54.405,-54.724,-55.055,-55.356,-55.614,-55.816,-55.947,-56.014,-56.039,-56.046,-56.061,-56.094,-56.142,-56.204,-56.273,-56.332,-56.346,-56.276,-56.089,-55.808,-55.517,-55.31,-55.269,-55.366,-55.449,-55.348,-54.912,-54.192,-53.465,-53.035,-53.184,-53.905,-54.872,-55.724,-56.122,-55.995,-55.572,-55.112,-54.859,-54.909,-55.185,-55.597,-56.056,-56.473,-56.759,-56.813,-56.736,-56.734,-56.735,-56.735
-73.64,-73.492,-73.314,-73.105,-72.868,-72.606,-72.32,-72.014,-71.69,-71.348,-70.985,-70.597,-70.184,-69.765,-69.388,-69.1,-68.947,-68.924,-68.967,-69.008,-68.981,-68.852,-68.621,-68.289,-67.864,-67.402,-67.014,-66.822,-66.934,-67.321,-67.797,-68.16,-68.217,-67.916,-67.357,-66.658,-65.929,-65.213,-64.485,-63.709,-62.854,-61.936,-61.027,-60.203,-59.534,-59.026,-58.609,-58.205,-57.743,-57.217,-56.702,-56.277,-56.016,-55.919,-55.9,-55.866,-55.726,-55.466,-55.149,-54.847,-54.627,-54.507,-54.444,-54.391,-54.303,-54.158,-53.958,-53.71,-53.42,-53.129,-52.915,-52.859,-53.037,-53.441,-53.962,-54.485,-54.898,-55.14,-55.21,-55.11,-54.846,-54.45,-53.985,-53.518,-53.115,-52.787,-52.491,-52.177,-51.797,-51.34,-50.835,-50.313,-49.804,-49.312,-48.811,-48.273,-47.671,-47.005,-46.303,-45.596,-44.914,-44.294,-43.775,-43.397,-43.2,-43.173,-43.256,-43.383,-43.49,-43.537,-43.512,-43.406,-43.21,-42.948,-42.674,-42.449,-42.328,-42.306,-42.31,-42.259,-42.079,-41.778,-41.453,-41.214,-41.16,-41.294,-41.373,-40.355,-39.706,-39.771,-40.442,-40.901,-39.054,-38.81,-39.717,-41.012,-41.549,-41.375,-41.029,-40.625,-40.29,-40.07,-39.921,-39.792,-39.633,-39.422,-39.167,-38.877,-38.564,-38.24,-37.917,-37.61,-37.332,-37.083,-36.85,-36.618,-36.372,-36.107,-35.83,-35.547,-35.263,-34.983,-34.708,-34.44,-34.18,-33.933,-33.708,-33.516,-33.366,-33.26,-33.189,-33.145,-33.122,-33.12,-33.156,-33.244,-33.399,-33.616,-33.868,-34.128,-34.368,-34.564,-34.701,-34.762,-34.735,-34.675,-34.711,-34.981,-35.615,-36.616,-37.846,-39.154,-40.395,-41.52,-42.585,-43.653,-44.789,-46.016,-47.318,-48.674,-50.062,-51.417,-52.623,-53.562,-54.121,-54.308,-54.26,-54.131,-54.065,-54.125,-54.279,-54.488,-54.715,-54.937,-55.147,-55.343,-55.52,-55.681,-55.836,-55.996,-56.172,-56.36,-56.542,-56.7,-56.814,-56.871,-56.857,-56.763,-56.578,-56.329,-56.08,-55.898,-55.846,-55.892,-55.898,-55.715,-55.206,-54.429,-53.657,-53.188,-53.298,-53.979,-54.911,-55.739,-56.128,-56.005,-55.584,-55.107,-54.806,-54.77,-54.935,-55.217,-55.539,-55.82,-55.982,-55.934,-55.813,-55.812,-55.813,-55.813
-72.757,-72.773,-72.693,-72.538,-72.323,-72.065,-71.778,-71.481,-71.187,-70.899,-70.607,-70.297,-69.958,-69.605,-69.283,-69.04,-68.918,-68.914,-68.97,-69.022,-69.007,-68.894,-68.678,-68.36,-67.943,-67.482,-67.093,-66.899,-67.014,-67.409,-67.899,-68.283,-68.37,-68.1,-67.561,-66.856,-66.08,-65.291,-64.496,-63.699,-62.906,-62.13,-61.392,-60.715,-60.121,-59.606,-59.144,-58.704,-58.258,-57.808,-57.387,-57.033,-56.781,-56.624,-56.512,-56.387,-56.196,-55.931,-55.629,-55.334,-55.089,-54.906,-54.768,-54.653,-54.542,-54.426,-54.305,-54.181,-54.058,-53.959,-53.934,-54.032,-54.3,-54.71,-55.157,-55.525,-55.703,-55.662,-55.46,-55.162,-54.833,-54.503,-54.168,-53.822,-53.456,-53.068,-52.656,-52.22,-51.761,-51.282,-50.791,-50.295,-49.802,-49.307,-48.793,-48.241,-47.633,-46.984,-46.345,-45.769,-45.308,-44.974,-44.736,-44.56,-44.413,-44.277,-44.155,-44.05,-43.964,-43.888,-43.798,-43.67,-43.48,-43.235,-42.977,-42.749,-42.593,-42.503,-42.425,-42.299,-42.069,-41.748,-41.425,-41.198,-41.155,-41.281,-41.44,-41.484,-41.274,-40.795,-40.19,-39.783,-40.02,-40.477,-41.035,-41.522,-41.716,-41.569,-41.218,-40.82,-40.521,-40.371,-40.308,-40.259,-40.157,-39.967,-39.7,-39.368,-38.983,-38.567,-38.153,-37.776,-37.467,-37.228,-37.03,-36.841,-36.628,-36.38,-36.107,-35.822,-35.537,-35.259,-34.991,-34.736,-34.494,-34.266,-34.044,-33.823,-33.597,-33.377,-33.194,-33.079,-33.064,-33.149,-33.307,-33.504,-33.712,-33.919,-34.137,-34.38,-34.661,-34.969,-35.274,-35.537,-35.727,-35.876,-36.081,-36.45,-37.084,-37.984,-39.041,-40.136,-41.157,-42.079,-42.979,-43.942,-45.05,-46.311,-47.66,-49.024,-50.328,-51.511,-52.518,-53.295,-53.793,-54.027,-54.084,-54.058,-54.04,-54.072,-54.141,-54.232,-54.329,-54.431,-54.554,-54.715,-54.93,-55.202,-55.518,-55.865,-56.226,-56.583,-56.907,-57.17,-57.345,-57.42,-57.401,-57.297,-57.115,-56.883,-56.648,-56.462,-56.371,-56.343,-56.264,-56.007,-55.459,-54.679,-53.917,-53.445,-53.516,-54.121,-54.968,-55.733,-56.109,-56.019,-55.644,-55.188,-54.846,-54.697,-54.694,-54.778,-54.89,-54.972,-54.964,-54.799,-54.641,-54.642,-54.643,-54.643
-72.176,-72.295,-72.285,-72.174,-71.987,-71.747,-71.474,-71.193,-70.925,-70.674,-70.425,-70.159,-69.862,-69.546,-69.254,-69.033,-68.926,-68.929,-68.984,-69.026,-68.995,-68.862,-68.633,-68.315,-67.92,-67.5,-67.152,-66.982,-67.084,-67.43,-67.855,-68.179,-68.232,-67.958,-67.428,-66.727,-65.936,-65.115,-64.301,-63.528,-62.83,-62.213,-61.652,-61.121,-60.592,-60.063,-59.55,-59.076,-58.66,-58.307,-58.007,-57.748,-57.518,-57.304,-57.095,-56.878,-56.642,-56.385,-56.116,-55.845,-55.581,-55.334,-55.114,-54.931,-54.795,-54.709,-54.67,-54.677,-54.727,-54.826,-54.992,-55.244,-55.595,-56.005,-56.369,-56.575,-56.519,-56.199,-55.728,-55.231,-54.825,-54.542,-54.317,-54.077,-53.75,-53.318,-52.813,-52.277,-51.746,-51.239,-50.749,-50.269,-49.793,-49.31,-48.804,-48.26,-47.666,-47.046,-46.469,-46.005,-45.723,-45.618,-45.608,-45.603,-45.515,-45.321,-45.061,-44.785,-44.537,-44.333,-44.149,-43.963,-43.751,-43.509,-43.258,-43.018,-42.811,-42.633,-42.453,-42.239,-41.961,-41.636,-41.331,-41.119,-41.067,-41.154,-41.264,-41.269,-41.051,-40.636,-40.203,-39.951,-40.065,-40.539,-41.158,-41.687,-41.902,-41.758,-41.407,-41.021,-40.763,-40.681,-40.7,-40.731,-40.687,-40.53,-40.265,-39.906,-39.463,-38.968,-38.468,-38.014,-37.653,-37.394,-37.197,-37.02,-36.822,-36.587,-36.325,-36.051,-35.778,-35.512,-35.256,-35.013,-34.783,-34.56,-34.329,-34.073,-33.776,-33.461,-33.186,-33.017,-33.013,-33.176,-33.441,-33.738,-33.999,-34.211,-34.415,-34.661,-34.992,-35.413,-35.877,-36.336,-36.743,-37.105,-37.487,-37.96,-38.59,-39.378,-40.251,-41.127,-41.931,-42.664,-43.413,-44.275,-45.337,-46.597,-47.951,-49.282,-50.48,-51.488,-52.305,-52.938,-53.393,-53.692,-53.871,-53.969,-54.024,-54.057,-54.07,-54.062,-54.035,-54.009,-54.026,-54.13,-54.364,-54.732,-55.198,-55.72,-56.258,-56.776,-57.237,-57.605,-57.847,-57.953,-57.94,-57.828,-57.638,-57.398,-57.148,-56.928,-56.775,-56.664,-56.506,-56.199,-55.657,-54.931,-54.237,-53.804,-53.848,-54.361,-55.09,-55.752,-56.084,-56.014,-55.68,-55.246,-54.866,-54.608,-54.441,-54.33,-54.237,-54.126,-53.96,-53.692,-53.506,-53.509,-53.51,-53.51
-72.173,-72.248,-72.215,-72.097,-71.915,-71.686,-71.431,-71.167,-70.912,-70.672,-70.432,-70.18,-69.904,-69.614,-69.347,-69.141,-69.032,-69.013,-69.026,-69.01,-68.904,-68.691,-68.397,-68.051,-67.684,-67.34,-67.075,-66.95,-67.018,-67.248,-67.511,-67.67,-67.593,-67.244,-66.689,-66.003,-65.263,-64.522,-63.814,-63.172,-62.625,-62.168,-61.754,-61.332,-60.856,-60.326,-59.796,-59.324,-58.966,-58.727,-58.556,-58.396,-58.194,-57.935,-57.645,-57.355,-57.094,-56.866,-56.648,-56.411,-56.131,-55.814,-55.502,-55.238,-55.065,-54.999,-55.027,-55.134,-55.303,-55.527,-55.806,-56.141,-56.532,-56.928,-57.227,-57.321,-57.107,-56.603,-55.95,-55.309,-54.826,-54.536,-54.348,-54.156,-53.86,-53.429,-52.904,-52.336,-51.773,-51.239,-50.733,-50.251,-49.791,-49.34,-48.876,-48.377,-47.823,-47.239,-46.699,-46.284,-46.068,-46.048,-46.127,-46.204,-46.18,-46.021,-45.765,-45.457,-45.14,-44.836,-44.546,-44.266,-43.996,-43.731,-43.468,-43.203,-42.933,-42.654,-42.366,-42.067,-41.756,-41.451,-41.185,-40.996,-40.917,-40.93,-40.956,-40.91,-40.715,-40.401,-40.113,-40.012,-40.245,-40.791,-41.447,-41.986,-42.196,-42.042,-41.684,-41.303,-41.069,-41.033,-41.109,-41.202,-41.219,-41.111,-40.882,-40.539,-40.089,-39.563,-39.012,-38.49,-38.05,-37.705,-37.429,-37.189,-36.954,-36.711,-36.459,-36.203,-35.944,-35.687,-35.434,-35.19,-34.956,-34.727,-34.486,-34.214,-33.896,-33.556,-33.259,-33.077,-33.077,-33.259,-33.555,-33.886,-34.18,-34.42,-34.656,-34.942,-35.328,-35.824,-36.385,-36.966,-37.521,-38.045,-38.568,-39.129,-39.761,-40.464,-41.195,-41.911,-42.568,-43.183,-43.84,-44.625,-45.621,-46.817,-48.1,-49.345,-50.433,-51.315,-52.021,-52.586,-53.047,-53.422,-53.716,-53.932,-54.071,-54.138,-54.138,-54.077,-53.962,-53.829,-53.745,-53.781,-54.002,-54.42,-54.981,-55.627,-56.301,-56.951,-57.531,-57.996,-58.304,-58.443,-58.437,-58.31,-58.091,-57.811,-57.509,-57.224,-56.994,-56.804,-56.588,-56.27,-55.785,-55.175,-54.607,-54.262,-54.306,-54.728,-55.316,-55.838,-56.076,-55.967,-55.625,-55.183,-54.765,-54.428,-54.155,-53.921,-53.702,-53.474,-53.211,-52.882,-52.679,-52.683,-52.684,-52.684
-72.752,-72.633,-72.478,-72.293,-72.083,-71.854,-71.611,-71.36,-71.108,-70.857,-70.602,-70.342,-70.074,-69.807,-69.563,-69.369,-69.244,-69.176,-69.11,-68.988,-68.757,-68.413,-68.011,-67.612,-67.275,-67.03,-66.876,-66.81,-66.828,-66.888,-66.913,-66.819,-66.528,-66.035,-65.415,-64.751,-64.125,-63.575,-63.1,-62.69,-62.34,-62.025,-61.709,-61.35,-60.912,-60.408,-59.907,-59.486,-59.213,-59.088,-59.034,-58.962,-58.792,-58.506,-58.165,-57.832,-57.569,-57.383,-57.218,-57.014,-56.715,-56.324,-55.913,-55.561,-55.344,-55.285,-55.352,-55.508,-55.716,-55.959,-56.24,-56.566,-56.938,-57.309,-57.576,-57.63,-57.367,-56.805,-56.089,-55.38,-54.828,-54.474,-54.238,-54.024,-53.744,-53.361,-52.897,-52.378,-51.831,-51.28,-50.744,-50.245,-49.8,-49.402,-49.013,-48.591,-48.099,-47.552,-47.02,-46.584,-46.315,-46.223,-46.244,-46.306,-46.342,-46.309,-46.2,-46.007,-45.723,-45.365,-44.967,-44.569,-44.208,-43.892,-43.595,-43.289,-42.948,-42.57,-42.18,-41.808,-41.481,-41.211,-40.996,-40.831,-40.712,-40.625,-40.546,-40.449,-40.311,-40.165,-40.102,-40.219,-40.606,-41.223,-41.889,-42.405,-42.586,-42.411,-42.04,-41.655,-41.425,-41.401,-41.502,-41.633,-41.702,-41.659,-41.499,-41.219,-40.819,-40.318,-39.759,-39.186,-38.643,-38.154,-37.721,-37.343,-37.02,-36.745,-36.499,-36.264,-36.022,-35.767,-35.506,-35.246,-34.993,-34.747,-34.499,-34.24,-33.959,-33.676,-33.436,-33.289,-33.28,-33.414,-33.649,-33.937,-34.233,-34.525,-34.839,-35.203,-35.643,-36.163,-36.741,-37.351,-37.969,-38.585,-39.204,-39.831,-40.472,-41.123,-41.771,-42.399,-42.997,-43.583,-44.218,-44.964,-45.88,-46.953,-48.093,-49.202,-50.186,-51.009,-51.697,-52.283,-52.797,-53.252,-53.639,-53.95,-54.174,-54.305,-54.343,-54.284,-54.131,-53.925,-53.755,-53.714,-53.89,-54.304,-54.897,-55.603,-56.359,-57.103,-57.778,-58.327,-58.694,-58.863,-58.858,-58.707,-58.44,-58.093,-57.711,-57.342,-57.029,-56.773,-56.526,-56.235,-55.851,-55.404,-55.007,-54.786,-54.853,-55.19,-55.628,-55.981,-56.075,-55.867,-55.461,-54.975,-54.522,-54.151,-53.846,-53.581,-53.334,-53.081,-52.798,-52.452,-52.243,-52.246,-52.247,-52.247
-73.609,-73.24,-72.924,-72.644,-72.387,-72.145,-71.909,-71.67,-71.419,-71.155,-70.883,-70.609,-70.342,-70.088,-69.858,-69.664,-69.513,-69.388,-69.237,-69.006,-68.646,-68.168,-67.658,-67.208,-66.903,-66.76,-66.72,-66.713,-66.675,-66.555,-66.325,-65.957,-65.425,-64.76,-64.055,-63.408,-62.913,-62.592,-62.389,-62.239,-62.078,-61.87,-61.603,-61.27,-60.863,-60.41,-59.979,-59.64,-59.459,-59.427,-59.456,-59.447,-59.306,-59.021,-58.666,-58.323,-58.07,-57.913,-57.778,-57.583,-57.251,-56.788,-56.29,-55.862,-55.604,-55.543,-55.623,-55.782,-55.958,-56.133,-56.327,-56.57,-56.884,-57.23,-57.499,-57.575,-57.35,-56.828,-56.137,-55.421,-54.813,-54.363,-54.025,-53.743,-53.464,-53.152,-52.793,-52.372,-51.877,-51.324,-50.762,-50.243,-49.817,-49.48,-49.177,-48.843,-48.422,-47.911,-47.375,-46.883,-46.502,-46.261,-46.146,-46.141,-46.226,-46.357,-46.459,-46.45,-46.258,-45.879,-45.389,-44.872,-44.408,-44.019,-43.666,-43.305,-42.892,-42.428,-41.957,-41.529,-41.192,-40.952,-40.773,-40.615,-40.44,-40.242,-40.054,-39.913,-39.854,-39.909,-40.102,-40.46,-41.003,-41.673,-42.321,-42.789,-42.929,-42.735,-42.361,-41.975,-41.739,-41.703,-41.796,-41.935,-42.041,-42.064,-41.986,-41.794,-41.473,-41.029,-40.489,-39.882,-39.237,-38.587,-37.972,-37.432,-37.005,-36.692,-36.453,-36.245,-36.025,-35.775,-35.505,-35.226,-34.947,-34.679,-34.425,-34.19,-33.98,-33.802,-33.665,-33.581,-33.559,-33.607,-33.729,-33.927,-34.207,-34.561,-34.974,-35.432,-35.918,-36.428,-36.969,-37.551,-38.181,-38.852,-39.54,-40.22,-40.869,-41.479,-42.066,-42.645,-43.233,-43.85,-44.518,-45.261,-46.103,-47.03,-47.996,-48.949,-49.839,-50.643,-51.366,-52.016,-52.6,-53.12,-53.573,-53.956,-54.263,-54.484,-54.6,-54.591,-54.439,-54.186,-53.942,-53.821,-53.932,-54.306,-54.886,-55.607,-56.404,-57.21,-57.956,-58.571,-58.986,-59.179,-59.173,-58.997,-58.678,-58.258,-57.794,-57.342,-56.956,-56.65,-56.394,-56.15,-55.886,-55.616,-55.4,-55.308,-55.403,-55.656,-55.939,-56.112,-56.045,-55.716,-55.227,-54.691,-54.214,-53.844,-53.556,-53.319,-53.104,-52.881,-52.621,-52.284,-52.072,-52.076,-52.077,-52.077
-74.411,-73.838,-73.386,-73.018,-72.712,-72.45,-72.214,-71.985,-71.745,-71.488,-71.219,-70.946,-70.677,-70.418,-70.178,-69.965,-69.785,-69.618,-69.412,-69.113,-68.672,-68.112,-67.538,-67.063,-66.795,-66.738,-66.787,-66.825,-66.739,-66.474,-66.038,-65.444,-64.707,-63.888,-63.097,-62.449,-62.054,-61.918,-61.933,-61.982,-61.951,-61.793,-61.531,-61.197,-60.822,-60.445,-60.112,-59.871,-59.765,-59.781,-59.839,-59.851,-59.736,-59.483,-59.16,-58.842,-58.598,-58.433,-58.273,-58.038,-57.653,-57.129,-56.572,-56.098,-55.817,-55.75,-55.821,-55.941,-56.03,-56.07,-56.115,-56.228,-56.464,-56.795,-57.101,-57.251,-57.123,-56.701,-56.09,-55.407,-54.761,-54.212,-53.756,-53.386,-53.093,-52.848,-52.597,-52.285,-51.859,-51.327,-50.761,-50.239,-49.836,-49.556,-49.328,-49.071,-48.713,-48.237,-47.699,-47.158,-46.673,-46.29,-46.044,-45.968,-46.089,-46.361,-46.649,-46.813,-46.718,-46.342,-45.79,-45.177,-44.615,-44.141,-43.714,-43.286,-42.809,-42.284,-41.762,-41.299,-40.947,-40.708,-40.525,-40.337,-40.085,-39.779,-39.498,-39.329,-39.357,-39.606,-40.038,-40.61,-41.277,-41.963,-42.563,-42.965,-43.065,-42.872,-42.519,-42.153,-41.912,-41.846,-41.902,-42.018,-42.136,-42.209,-42.206,-42.098,-41.857,-41.473,-40.96,-40.334,-39.611,-38.834,-38.073,-37.403,-36.895,-36.558,-36.334,-36.158,-35.969,-35.737,-35.471,-35.182,-34.883,-34.589,-34.325,-34.113,-33.975,-33.91,-33.887,-33.874,-33.842,-33.8,-33.801,-33.902,-34.157,-34.567,-35.075,-35.618,-36.136,-36.617,-37.103,-37.64,-38.271,-38.993,-39.75,-40.48,-41.126,-41.679,-42.191,-42.715,-43.303,-43.973,-44.708,-45.483,-46.277,-47.078,-47.883,-48.69,-49.498,-50.294,-51.058,-51.768,-52.403,-52.957,-53.442,-53.872,-54.26,-54.591,-54.818,-54.893,-54.771,-54.491,-54.18,-53.978,-54.015,-54.334,-54.881,-55.593,-56.406,-57.248,-58.04,-58.7,-59.151,-59.361,-59.354,-59.157,-58.8,-58.326,-57.801,-57.289,-56.854,-56.52,-56.269,-56.078,-55.926,-55.81,-55.748,-55.76,-55.864,-56.025,-56.155,-56.158,-55.945,-55.516,-54.967,-54.404,-53.929,-53.582,-53.332,-53.141,-52.974,-52.794,-52.564,-52.237,-52.021,-52.025,-52.026,-52.026
-74.842,-74.21,-73.705,-73.29,-72.949,-72.663,-72.419,-72.2,-71.991,-71.779,-71.557,-71.315,-71.047,-70.759,-70.474,-70.216,-70.008,-69.832,-69.634,-69.351,-68.927,-68.385,-67.832,-67.388,-67.162,-67.155,-67.244,-67.297,-67.186,-66.853,-66.32,-65.615,-64.77,-63.858,-63,-62.324,-61.949,-61.875,-61.966,-62.076,-62.062,-61.878,-61.579,-61.232,-60.898,-60.618,-60.401,-60.256,-60.189,-60.185,-60.197,-60.177,-60.08,-59.896,-59.657,-59.399,-59.154,-58.919,-58.652,-58.305,-57.838,-57.271,-56.701,-56.23,-55.956,-55.885,-55.924,-55.971,-55.929,-55.792,-55.653,-55.614,-55.772,-56.109,-56.486,-56.748,-56.75,-56.454,-55.945,-55.314,-54.655,-54.031,-53.477,-53.025,-52.703,-52.492,-52.314,-52.087,-51.734,-51.251,-50.719,-50.226,-49.855,-49.613,-49.428,-49.215,-48.897,-48.453,-47.933,-47.388,-46.872,-46.437,-46.14,-46.035,-46.172,-46.504,-46.875,-47.119,-47.076,-46.717,-46.146,-45.485,-44.85,-44.287,-43.77,-43.263,-42.736,-42.189,-41.658,-41.184,-40.804,-40.513,-40.26,-39.985,-39.637,-39.238,-38.895,-38.723,-38.831,-39.232,-39.839,-40.552,-41.274,-41.926,-42.446,-42.771,-42.845,-42.687,-42.396,-42.083,-41.851,-41.744,-41.736,-41.795,-41.89,-41.983,-42.028,-41.978,-41.789,-41.442,-40.946,-40.315,-39.562,-38.735,-37.919,-37.205,-36.676,-36.347,-36.151,-36.016,-35.87,-35.677,-35.44,-35.165,-34.858,-34.541,-34.257,-34.05,-33.959,-33.977,-34.044,-34.092,-34.059,-33.956,-33.87,-33.899,-34.135,-34.582,-35.153,-35.75,-36.281,-36.731,-37.173,-37.687,-38.348,-39.15,-39.996,-40.782,-41.406,-41.863,-42.248,-42.67,-43.227,-43.945,-44.759,-45.598,-46.394,-47.126,-47.826,-48.528,-49.265,-50.036,-50.804,-51.524,-52.156,-52.695,-53.174,-53.629,-54.092,-54.545,-54.906,-55.089,-55.017,-54.718,-54.345,-54.063,-54.029,-54.298,-54.816,-55.516,-56.333,-57.192,-58.007,-58.691,-59.158,-59.377,-59.371,-59.169,-58.801,-58.314,-57.773,-57.247,-56.8,-56.462,-56.225,-56.075,-55.999,-55.984,-56.014,-56.074,-56.148,-56.203,-56.188,-56.05,-55.74,-55.269,-54.722,-54.186,-53.748,-53.436,-53.219,-53.056,-52.909,-52.742,-52.515,-52.179,-51.954,-51.958,-51.959,-51.959
-74.82,-74.285,-73.82,-73.409,-73.049,-72.74,-72.482,-72.274,-72.115,-71.986,-71.851,-71.67,-71.406,-71.066,-70.703,-70.375,-70.139,-69.99,-69.861,-69.677,-69.371,-68.95,-68.51,-68.153,-67.976,-67.981,-68.061,-68.101,-67.989,-67.673,-67.164,-66.479,-65.637,-64.708,-63.814,-63.088,-62.651,-62.503,-62.513,-62.531,-62.42,-62.142,-61.774,-61.406,-61.12,-60.946,-60.847,-60.785,-60.719,-60.634,-60.538,-60.441,-60.353,-60.266,-60.15,-59.975,-59.713,-59.354,-58.909,-58.392,-57.818,-57.227,-56.684,-56.258,-56.014,-55.937,-55.928,-55.876,-55.681,-55.352,-55.02,-54.833,-54.926,-55.29,-55.76,-56.151,-56.29,-56.117,-55.704,-55.133,-54.484,-53.826,-53.215,-52.705,-52.348,-52.133,-51.979,-51.797,-51.507,-51.096,-50.635,-50.202,-49.869,-49.645,-49.466,-49.259,-48.956,-48.545,-48.068,-47.577,-47.119,-46.744,-46.494,-46.416,-46.549,-46.85,-47.18,-47.39,-47.341,-46.999,-46.449,-45.788,-45.109,-44.461,-43.845,-43.258,-42.696,-42.161,-41.656,-41.189,-40.762,-40.367,-39.978,-39.567,-39.109,-38.644,-38.279,-38.128,-38.299,-38.79,-39.484,-40.246,-40.951,-41.522,-41.939,-42.188,-42.256,-42.164,-41.971,-41.739,-41.53,-41.377,-41.286,-41.261,-41.304,-41.385,-41.446,-41.421,-41.25,-40.907,-40.412,-39.786,-39.051,-38.258,-37.486,-36.82,-36.339,-36.053,-35.902,-35.816,-35.727,-35.597,-35.416,-35.18,-34.884,-34.553,-34.246,-34.023,-33.944,-33.999,-34.112,-34.196,-34.172,-34.047,-33.927,-33.926,-34.152,-34.614,-35.209,-35.822,-36.346,-36.771,-37.192,-37.716,-38.444,-39.358,-40.316,-41.161,-41.745,-42.066,-42.275,-42.545,-43.035,-43.781,-44.677,-45.605,-46.454,-47.186,-47.847,-48.492,-49.173,-49.895,-50.615,-51.283,-51.853,-52.328,-52.761,-53.213,-53.738,-54.308,-54.806,-55.103,-55.081,-54.763,-54.326,-53.966,-53.868,-54.099,-54.602,-55.303,-56.131,-57.007,-57.84,-58.537,-59.012,-59.231,-59.226,-59.031,-58.683,-58.229,-57.726,-57.236,-56.815,-56.493,-56.269,-56.138,-56.094,-56.117,-56.173,-56.225,-56.235,-56.178,-56.037,-55.798,-55.446,-55.003,-54.524,-54.07,-53.697,-53.422,-53.217,-53.048,-52.883,-52.69,-52.436,-52.077,-51.843,-51.846,-51.847,-51.847
-74.52,-74.156,-73.778,-73.397,-73.032,-72.704,-72.432,-72.235,-72.133,-72.1,-72.066,-71.953,-71.692,-71.287,-70.83,-70.421,-70.153,-70.039,-70.002,-69.955,-69.815,-69.572,-69.296,-69.062,-68.943,-68.943,-68.989,-69.005,-68.913,-68.668,-68.259,-67.678,-66.918,-66.034,-65.142,-64.367,-63.826,-63.529,-63.362,-63.2,-62.925,-62.519,-62.068,-61.674,-61.43,-61.349,-61.352,-61.351,-61.266,-61.082,-60.863,-60.678,-60.594,-60.601,-60.608,-60.514,-60.226,-59.727,-59.089,-58.391,-57.71,-57.102,-56.596,-56.222,-56.006,-55.912,-55.84,-55.682,-55.337,-54.833,-54.334,-54.024,-54.071,-54.472,-55.034,-55.544,-55.798,-55.722,-55.384,-54.867,-54.248,-53.599,-52.979,-52.449,-52.064,-51.822,-51.653,-51.482,-51.238,-50.906,-50.533,-50.174,-49.88,-49.657,-49.458,-49.234,-48.938,-48.563,-48.154,-47.755,-47.413,-47.16,-47.014,-46.993,-47.11,-47.327,-47.543,-47.652,-47.554,-47.22,-46.703,-46.064,-45.36,-44.64,-43.934,-43.274,-42.69,-42.182,-41.715,-41.254,-40.764,-40.233,-39.676,-39.108,-38.548,-38.047,-37.694,-37.58,-37.792,-38.312,-39.01,-39.744,-40.379,-40.849,-41.167,-41.355,-41.434,-41.421,-41.333,-41.187,-40.999,-40.797,-40.617,-40.498,-40.476,-40.533,-40.594,-40.576,-40.401,-40.044,-39.537,-38.918,-38.226,-37.511,-36.837,-36.272,-35.878,-35.662,-35.57,-35.544,-35.524,-35.471,-35.365,-35.188,-34.923,-34.596,-34.273,-34.031,-33.936,-33.987,-34.103,-34.194,-34.178,-34.06,-33.945,-33.948,-34.178,-34.64,-35.231,-35.833,-36.337,-36.74,-37.155,-37.708,-38.514,-39.544,-40.609,-41.505,-42.04,-42.212,-42.235,-42.343,-42.757,-43.525,-44.506,-45.54,-46.472,-47.248,-47.917,-48.542,-49.181,-49.842,-50.486,-51.064,-51.534,-51.909,-52.263,-52.68,-53.234,-53.891,-54.496,-54.881,-54.889,-54.537,-54.027,-53.585,-53.425,-53.628,-54.13,-54.854,-55.722,-56.646,-57.526,-58.26,-58.749,-58.964,-58.95,-58.762,-58.452,-58.066,-57.645,-57.229,-56.857,-56.555,-56.331,-56.192,-56.144,-56.167,-56.214,-56.234,-56.178,-56.026,-55.793,-55.495,-55.147,-54.771,-54.393,-54.041,-53.739,-53.492,-53.281,-53.084,-52.88,-52.647,-52.365,-52,-51.775,-51.779,-51.78,-51.78
-74.144,-73.933,-73.636,-73.288,-72.926,-72.586,-72.305,-72.121,-72.068,-72.116,-72.165,-72.106,-71.84,-71.371,-70.823,-70.331,-70.024,-69.928,-69.963,-70.034,-70.054,-69.994,-69.892,-69.793,-69.741,-69.741,-69.758,-69.755,-69.695,-69.541,-69.26,-68.817,-68.181,-67.386,-66.534,-65.739,-65.103,-64.645,-64.28,-63.918,-63.471,-62.937,-62.408,-61.985,-61.762,-61.737,-61.802,-61.838,-61.734,-61.478,-61.171,-60.924,-60.841,-60.911,-60.999,-60.955,-60.639,-60.031,-59.244,-58.406,-57.64,-57.011,-56.521,-56.169,-55.95,-55.816,-55.671,-55.414,-54.952,-54.325,-53.717,-53.332,-53.358,-53.792,-54.421,-55.008,-55.328,-55.3,-55,-54.519,-53.946,-53.349,-52.777,-52.274,-51.886,-51.612,-51.406,-51.217,-50.997,-50.73,-50.439,-50.15,-49.887,-49.653,-49.425,-49.179,-48.892,-48.568,-48.244,-47.958,-47.747,-47.628,-47.592,-47.628,-47.725,-47.848,-47.937,-47.928,-47.76,-47.415,-46.916,-46.292,-45.572,-44.799,-44.028,-43.317,-42.718,-42.23,-41.785,-41.313,-40.744,-40.069,-39.346,-38.636,-38.001,-37.501,-37.188,-37.119,-37.343,-37.83,-38.46,-39.106,-39.643,-40.021,-40.271,-40.429,-40.53,-40.587,-40.582,-40.498,-40.318,-40.064,-39.801,-39.598,-39.52,-39.556,-39.617,-39.604,-39.422,-39.045,-38.521,-37.905,-37.253,-36.617,-36.044,-35.586,-35.289,-35.155,-35.137,-35.183,-35.241,-35.272,-35.248,-35.143,-34.931,-34.633,-34.32,-34.066,-33.943,-33.955,-34.031,-34.096,-34.076,-33.979,-33.896,-33.929,-34.174,-34.632,-35.205,-35.781,-36.26,-36.644,-37.057,-37.635,-38.503,-39.619,-40.761,-41.687,-42.17,-42.216,-42.085,-42.063,-42.424,-43.226,-44.296,-45.438,-46.465,-47.302,-48.002,-48.626,-49.236,-49.843,-50.409,-50.889,-51.244,-51.499,-51.746,-52.09,-52.623,-53.307,-53.958,-54.374,-54.369,-53.952,-53.352,-52.821,-52.596,-52.774,-53.29,-54.067,-55.025,-56.064,-57.059,-57.883,-58.412,-58.62,-58.582,-58.387,-58.116,-57.821,-57.511,-57.195,-56.879,-56.583,-56.333,-56.156,-56.08,-56.089,-56.126,-56.129,-56.037,-55.837,-55.56,-55.245,-54.929,-54.629,-54.348,-54.083,-53.833,-53.595,-53.362,-53.127,-52.884,-52.627,-52.348,-52.034,-51.856,-51.859,-51.86,-51.86
-73.881,-73.72,-73.45,-73.113,-72.754,-72.414,-72.137,-71.966,-71.942,-72.03,-72.115,-72.073,-71.789,-71.268,-70.65,-70.088,-69.727,-69.608,-69.654,-69.778,-69.897,-69.973,-70.016,-70.042,-70.066,-70.092,-70.11,-70.113,-70.09,-70.014,-69.841,-69.522,-69.015,-68.336,-67.568,-66.803,-66.126,-65.557,-65.044,-64.527,-63.951,-63.329,-62.743,-62.289,-62.053,-62.025,-62.094,-62.135,-62.033,-61.774,-61.462,-61.211,-61.129,-61.204,-61.294,-61.242,-60.902,-60.255,-59.421,-58.535,-57.727,-57.062,-56.538,-56.142,-55.864,-55.656,-55.432,-55.101,-54.58,-53.913,-53.284,-52.894,-52.928,-53.38,-54.026,-54.621,-54.932,-54.883,-54.567,-54.097,-53.58,-53.08,-52.615,-52.199,-51.844,-51.551,-51.299,-51.07,-50.845,-50.614,-50.377,-50.135,-49.889,-49.639,-49.386,-49.129,-48.868,-48.614,-48.39,-48.216,-48.117,-48.092,-48.124,-48.19,-48.27,-48.331,-48.334,-48.239,-48.003,-47.616,-47.093,-46.452,-45.713,-44.916,-44.12,-43.388,-42.778,-42.283,-41.82,-41.301,-40.64,-39.838,-38.984,-38.178,-37.516,-37.055,-36.806,-36.78,-36.983,-37.377,-37.876,-38.388,-38.824,-39.148,-39.383,-39.555,-39.689,-39.786,-39.815,-39.743,-39.543,-39.237,-38.91,-38.651,-38.542,-38.579,-38.657,-38.662,-38.484,-38.095,-37.555,-36.932,-36.293,-35.693,-35.178,-34.79,-34.571,-34.52,-34.587,-34.718,-34.861,-34.975,-35.031,-35.003,-34.865,-34.633,-34.364,-34.123,-33.97,-33.914,-33.911,-33.912,-33.868,-33.792,-33.754,-33.834,-34.105,-34.563,-35.118,-35.667,-36.12,-36.486,-36.891,-37.474,-38.36,-39.503,-40.664,-41.586,-42.026,-41.996,-41.784,-41.708,-42.068,-42.928,-44.092,-45.336,-46.448,-47.341,-48.069,-48.699,-49.293,-49.866,-50.376,-50.777,-51.026,-51.155,-51.272,-51.499,-51.943,-52.567,-53.169,-53.529,-53.443,-52.921,-52.208,-51.574,-51.278,-51.428,-51.972,-52.838,-53.955,-55.206,-56.418,-57.416,-58.03,-58.233,-58.149,-57.92,-57.681,-57.487,-57.307,-57.102,-56.835,-56.516,-56.201,-55.955,-55.836,-55.841,-55.899,-55.934,-55.87,-55.69,-55.433,-55.146,-54.872,-54.629,-54.403,-54.178,-53.938,-53.679,-53.41,-53.142,-52.882,-52.642,-52.429,-52.254,-52.177,-52.18,-52.18,-52.18
-73.79,-73.555,-73.245,-72.893,-72.535,-72.207,-71.944,-71.783,-71.758,-71.831,-71.892,-71.822,-71.509,-70.959,-70.305,-69.697,-69.276,-69.088,-69.077,-69.174,-69.317,-69.465,-69.608,-69.738,-69.846,-69.929,-69.988,-70.027,-70.045,-70.025,-69.922,-69.692,-69.295,-68.736,-68.078,-67.388,-66.73,-66.125,-65.543,-64.95,-64.315,-63.658,-63.049,-62.566,-62.284,-62.195,-62.208,-62.222,-62.142,-61.951,-61.72,-61.528,-61.448,-61.468,-61.479,-61.363,-61.007,-60.397,-59.623,-58.786,-57.984,-57.273,-56.664,-56.162,-55.772,-55.46,-55.155,-54.778,-54.258,-53.634,-53.069,-52.738,-52.805,-53.251,-53.86,-54.391,-54.618,-54.48,-54.099,-53.613,-53.155,-52.784,-52.474,-52.195,-51.914,-51.622,-51.33,-51.052,-50.799,-50.572,-50.355,-50.132,-49.887,-49.621,-49.352,-49.099,-48.883,-48.713,-48.591,-48.515,-48.487,-48.501,-48.545,-48.607,-48.676,-48.723,-48.704,-48.572,-48.282,-47.826,-47.233,-46.537,-45.771,-44.974,-44.191,-43.467,-42.845,-42.309,-41.784,-41.184,-40.433,-39.54,-38.614,-37.773,-37.131,-36.734,-36.553,-36.553,-36.701,-36.959,-37.287,-37.642,-37.987,-38.296,-38.563,-38.785,-38.955,-39.059,-39.074,-38.972,-38.732,-38.384,-38.02,-37.738,-37.628,-37.685,-37.793,-37.826,-37.664,-37.277,-36.726,-36.087,-35.431,-34.819,-34.305,-33.938,-33.767,-33.79,-33.946,-34.17,-34.397,-34.585,-34.713,-34.761,-34.712,-34.574,-34.384,-34.182,-34.005,-33.869,-33.762,-33.67,-33.582,-33.516,-33.52,-33.649,-33.952,-34.415,-34.958,-35.488,-35.924,-36.278,-36.671,-37.236,-38.093,-39.196,-40.314,-41.195,-41.607,-41.564,-41.359,-41.314,-41.732,-42.673,-43.928,-45.258,-46.439,-47.379,-48.134,-48.776,-49.372,-49.932,-50.408,-50.746,-50.894,-50.884,-50.838,-50.886,-51.149,-51.595,-52.026,-52.224,-51.987,-51.328,-50.496,-49.766,-49.401,-49.521,-50.091,-51.061,-52.377,-53.902,-55.406,-56.649,-57.404,-57.637,-57.531,-57.288,-57.102,-57.036,-57.009,-56.926,-56.699,-56.329,-55.917,-55.575,-55.408,-55.429,-55.55,-55.671,-55.699,-55.603,-55.418,-55.19,-54.959,-54.741,-54.522,-54.285,-54.015,-53.715,-53.409,-53.121,-52.875,-52.697,-52.611,-52.648,-52.717,-52.718,-52.717,-52.717
-73.788,-73.406,-73.02,-72.639,-72.283,-71.971,-71.724,-71.561,-71.5,-71.506,-71.49,-71.354,-71.007,-70.455,-69.809,-69.193,-68.723,-68.447,-68.337,-68.356,-68.47,-68.645,-68.854,-69.07,-69.265,-69.425,-69.553,-69.65,-69.719,-69.745,-69.692,-69.524,-69.207,-68.744,-68.182,-67.573,-66.965,-66.377,-65.794,-65.197,-64.569,-63.928,-63.328,-62.829,-62.485,-62.299,-62.217,-62.176,-62.12,-62.026,-61.915,-61.811,-61.734,-61.67,-61.565,-61.357,-60.992,-60.46,-59.804,-59.071,-58.309,-57.558,-56.852,-56.223,-55.703,-55.281,-54.898,-54.493,-54.007,-53.471,-53.014,-52.773,-52.878,-53.297,-53.828,-54.247,-54.344,-54.08,-53.604,-53.085,-52.683,-52.447,-52.31,-52.189,-52.006,-51.739,-51.424,-51.104,-50.818,-50.578,-50.359,-50.135,-49.883,-49.602,-49.326,-49.087,-48.918,-48.826,-48.79,-48.788,-48.796,-48.807,-48.829,-48.87,-48.937,-49.004,-49.006,-48.875,-48.546,-48.012,-47.328,-46.557,-45.757,-44.971,-44.216,-43.509,-42.866,-42.266,-41.654,-40.967,-40.149,-39.22,-38.289,-37.47,-36.873,-36.531,-36.387,-36.379,-36.444,-36.553,-36.708,-36.915,-37.178,-37.482,-37.789,-38.062,-38.26,-38.359,-38.346,-38.21,-37.941,-37.579,-37.211,-36.934,-36.836,-36.909,-37.034,-37.083,-36.935,-36.555,-36.003,-35.353,-34.672,-34.029,-33.488,-33.115,-32.971,-33.053,-33.287,-33.594,-33.895,-34.145,-34.333,-34.45,-34.49,-34.454,-34.354,-34.204,-34.018,-33.811,-33.605,-33.42,-33.277,-33.201,-33.227,-33.386,-33.71,-34.178,-34.716,-35.241,-35.678,-36.039,-36.43,-36.971,-37.771,-38.787,-39.816,-40.634,-41.032,-41.033,-40.91,-40.962,-41.474,-42.496,-43.82,-45.214,-46.457,-47.457,-48.264,-48.945,-49.56,-50.115,-50.552,-50.81,-50.828,-50.639,-50.365,-50.144,-50.102,-50.223,-50.338,-50.261,-49.819,-49.029,-48.119,-47.342,-46.935,-47.022,-47.593,-48.626,-50.094,-51.853,-53.628,-55.13,-56.084,-56.45,-56.445,-56.312,-56.283,-56.417,-56.587,-56.649,-56.465,-56.037,-55.517,-55.072,-54.861,-54.914,-55.121,-55.358,-55.505,-55.516,-55.421,-55.257,-55.06,-54.846,-54.608,-54.34,-54.032,-53.698,-53.371,-53.087,-52.882,-52.791,-52.85,-53.108,-53.323,-53.321,-53.32,-53.32
-73.773,-73.232,-72.766,-72.359,-72.008,-71.713,-71.472,-71.286,-71.151,-71.042,-70.9,-70.668,-70.29,-69.772,-69.185,-68.611,-68.124,-67.769,-67.551,-67.471,-67.53,-67.709,-67.966,-68.256,-68.534,-68.778,-68.986,-69.157,-69.292,-69.374,-69.371,-69.247,-68.972,-68.549,-68.029,-67.461,-66.898,-66.357,-65.825,-65.285,-64.722,-64.145,-63.589,-63.092,-62.691,-62.4,-62.204,-62.087,-62.034,-62.02,-62.017,-61.993,-61.919,-61.776,-61.56,-61.268,-60.898,-60.448,-59.914,-59.294,-58.588,-57.821,-57.046,-56.318,-55.69,-55.171,-54.721,-54.294,-53.847,-53.403,-53.053,-52.896,-53.024,-53.396,-53.825,-54.111,-54.064,-53.667,-53.093,-52.535,-52.175,-52.056,-52.072,-52.1,-52.022,-51.803,-51.496,-51.161,-50.857,-50.602,-50.373,-50.14,-49.877,-49.588,-49.31,-49.084,-48.949,-48.908,-48.925,-48.96,-48.976,-48.966,-48.955,-48.974,-49.051,-49.156,-49.201,-49.093,-48.741,-48.139,-47.368,-46.521,-45.685,-44.902,-44.167,-43.465,-42.786,-42.11,-41.409,-40.654,-39.819,-38.928,-38.065,-37.318,-36.769,-36.436,-36.264,-36.19,-36.153,-36.134,-36.157,-36.251,-36.442,-36.72,-37.03,-37.318,-37.527,-37.627,-37.612,-37.48,-37.23,-36.898,-36.565,-36.313,-36.222,-36.281,-36.384,-36.413,-36.257,-35.883,-35.344,-34.701,-34.014,-33.353,-32.793,-32.412,-32.281,-32.401,-32.688,-33.052,-33.406,-33.701,-33.934,-34.107,-34.219,-34.267,-34.247,-34.151,-33.974,-33.733,-33.465,-33.212,-33.013,-32.904,-32.91,-33.06,-33.378,-33.842,-34.382,-34.921,-35.388,-35.787,-36.204,-36.736,-37.471,-38.377,-39.29,-40.031,-40.435,-40.528,-40.543,-40.737,-41.352,-42.429,-43.785,-45.215,-46.523,-47.619,-48.531,-49.298,-49.957,-50.497,-50.861,-50.984,-50.81,-50.364,-49.77,-49.158,-48.654,-48.27,-47.903,-47.432,-46.747,-45.872,-44.977,-44.244,-43.852,-43.904,-44.421,-45.418,-46.902,-48.743,-50.665,-52.373,-53.587,-54.257,-54.586,-54.801,-55.118,-55.573,-56.01,-56.25,-56.131,-55.661,-55.045,-54.509,-54.265,-54.36,-54.66,-55.011,-55.268,-55.367,-55.335,-55.212,-55.032,-54.814,-54.561,-54.274,-53.955,-53.622,-53.313,-53.068,-52.924,-52.922,-53.101,-53.516,-53.828,-53.824,-53.823,-53.823
-73.654,-72.996,-72.48,-72.064,-71.723,-71.437,-71.185,-70.945,-70.697,-70.425,-70.119,-69.771,-69.372,-68.928,-68.459,-67.988,-67.536,-67.135,-66.828,-66.658,-66.666,-66.847,-67.145,-67.5,-67.854,-68.175,-68.462,-68.715,-68.935,-69.099,-69.163,-69.077,-68.797,-68.334,-67.761,-67.157,-66.597,-66.109,-65.666,-65.236,-64.788,-64.316,-63.836,-63.37,-62.936,-62.555,-62.248,-62.039,-61.947,-61.952,-61.996,-62.011,-61.936,-61.75,-61.474,-61.138,-60.767,-60.363,-59.904,-59.361,-58.712,-57.971,-57.192,-56.436,-55.76,-55.182,-54.679,-54.225,-53.796,-53.407,-53.122,-53.008,-53.127,-53.431,-53.752,-53.91,-53.736,-53.231,-52.579,-51.986,-51.646,-51.599,-51.717,-51.855,-51.873,-51.726,-51.468,-51.163,-50.873,-50.619,-50.383,-50.142,-49.872,-49.582,-49.306,-49.085,-48.955,-48.919,-48.937,-48.966,-48.966,-48.933,-48.904,-48.919,-49.015,-49.161,-49.251,-49.171,-48.815,-48.172,-47.343,-46.439,-45.565,-44.765,-44.017,-43.289,-42.554,-41.799,-41.029,-40.251,-39.471,-38.709,-37.995,-37.362,-36.841,-36.439,-36.14,-35.924,-35.771,-35.676,-35.646,-35.692,-35.821,-36.021,-36.257,-36.489,-36.682,-36.808,-36.854,-36.806,-36.652,-36.415,-36.157,-35.944,-35.838,-35.832,-35.848,-35.797,-35.596,-35.22,-34.708,-34.105,-33.455,-32.82,-32.278,-31.91,-31.791,-31.922,-32.223,-32.603,-32.976,-33.295,-33.558,-33.766,-33.919,-34.014,-34.04,-33.986,-33.845,-33.625,-33.363,-33.092,-32.85,-32.675,-32.607,-32.688,-32.957,-33.401,-33.95,-34.527,-35.061,-35.542,-36.028,-36.582,-37.266,-38.058,-38.847,-39.512,-39.943,-40.166,-40.358,-40.715,-41.42,-42.504,-43.837,-45.267,-46.652,-47.904,-48.999,-49.92,-50.647,-51.148,-51.376,-51.28,-50.815,-50.01,-48.973,-47.822,-46.671,-45.577,-44.54,-43.551,-42.606,-41.73,-40.984,-40.431,-40.134,-40.15,-40.535,-41.342,-42.62,-44.29,-46.141,-47.944,-49.481,-50.691,-51.684,-52.586,-53.516,-54.457,-55.25,-55.716,-55.695,-55.22,-54.544,-53.947,-53.688,-53.83,-54.211,-54.647,-54.965,-55.091,-55.063,-54.93,-54.742,-54.524,-54.283,-54.024,-53.752,-53.484,-53.252,-53.086,-53.02,-53.086,-53.316,-53.759,-54.074,-54.07,-54.068,-54.068
-73.411,-72.704,-72.178,-71.77,-71.441,-71.152,-70.865,-70.543,-70.149,-69.685,-69.195,-68.724,-68.318,-67.982,-67.677,-67.361,-66.994,-66.592,-66.233,-65.999,-65.969,-66.153,-66.486,-66.894,-67.309,-67.693,-68.051,-68.387,-68.707,-68.978,-69.127,-69.078,-68.759,-68.19,-67.487,-66.776,-66.18,-65.737,-65.397,-65.103,-64.798,-64.453,-64.071,-63.656,-63.215,-62.772,-62.372,-62.063,-61.889,-61.843,-61.857,-61.858,-61.777,-61.587,-61.311,-60.975,-60.604,-60.202,-59.754,-59.238,-58.638,-57.962,-57.249,-56.542,-55.882,-55.288,-54.752,-54.268,-53.829,-53.451,-53.18,-53.063,-53.141,-53.364,-53.584,-53.638,-53.374,-52.803,-52.109,-51.497,-51.157,-51.13,-51.287,-51.482,-51.575,-51.513,-51.339,-51.105,-50.859,-50.622,-50.386,-50.139,-49.87,-49.586,-49.315,-49.089,-48.934,-48.854,-48.82,-48.8,-48.767,-48.72,-48.694,-48.725,-48.847,-49.024,-49.143,-49.085,-48.736,-48.087,-47.238,-46.304,-45.394,-44.551,-43.752,-42.962,-42.154,-41.327,-40.518,-39.765,-39.106,-38.54,-38.031,-37.536,-37.017,-36.477,-35.971,-35.556,-35.288,-35.174,-35.171,-35.229,-35.302,-35.372,-35.453,-35.561,-35.713,-35.895,-36.068,-36.186,-36.207,-36.127,-35.986,-35.824,-35.682,-35.564,-35.431,-35.241,-34.955,-34.563,-34.085,-33.547,-32.974,-32.412,-31.931,-31.606,-31.504,-31.628,-31.909,-32.269,-32.633,-32.958,-33.234,-33.455,-33.616,-33.713,-33.747,-33.719,-33.632,-33.49,-33.298,-33.065,-32.799,-32.539,-32.354,-32.319,-32.505,-32.913,-33.473,-34.105,-34.734,-35.33,-35.918,-36.526,-37.179,-37.867,-38.538,-39.135,-39.609,-39.984,-40.372,-40.893,-41.659,-42.7,-43.954,-45.348,-46.809,-48.255,-49.588,-50.71,-51.524,-51.968,-52.012,-51.631,-50.803,-49.558,-47.985,-46.178,-44.233,-42.265,-40.412,-38.814,-37.607,-36.815,-36.347,-36.094,-35.96,-35.935,-36.111,-36.592,-37.472,-38.759,-40.357,-42.165,-44.08,-46.028,-47.959,-49.827,-51.586,-53.142,-54.356,-55.083,-55.189,-54.746,-54.049,-53.419,-53.159,-53.341,-53.777,-54.256,-54.575,-54.658,-54.566,-54.375,-54.157,-53.95,-53.757,-53.579,-53.417,-53.277,-53.174,-53.125,-53.145,-53.25,-53.456,-53.79,-54.014,-54.01,-54.009,-54.009
-73.111,-72.41,-71.898,-71.504,-71.175,-70.864,-70.522,-70.1,-69.552,-68.899,-68.233,-67.653,-67.252,-67.035,-66.908,-66.768,-66.516,-66.152,-65.777,-65.506,-65.447,-65.624,-65.968,-66.403,-66.856,-67.289,-67.709,-68.125,-68.544,-68.922,-69.16,-69.149,-68.793,-68.116,-67.278,-66.455,-65.812,-65.403,-65.155,-64.983,-64.806,-64.575,-64.283,-63.922,-63.488,-63.006,-62.533,-62.13,-61.856,-61.713,-61.645,-61.591,-61.49,-61.312,-61.063,-60.749,-60.376,-59.951,-59.477,-58.957,-58.394,-57.798,-57.184,-56.567,-55.963,-55.383,-54.837,-54.332,-53.878,-53.493,-53.212,-53.07,-53.097,-53.246,-53.383,-53.364,-53.055,-52.469,-51.777,-51.168,-50.821,-50.776,-50.919,-51.119,-51.255,-51.272,-51.191,-51.04,-50.848,-50.631,-50.393,-50.138,-49.87,-49.598,-49.337,-49.1,-48.902,-48.748,-48.628,-48.533,-48.455,-48.399,-48.387,-48.441,-48.581,-48.766,-48.889,-48.837,-48.5,-47.867,-47.029,-46.089,-45.147,-44.245,-43.369,-42.498,-41.612,-40.731,-39.91,-39.211,-38.69,-38.328,-38.02,-37.653,-37.122,-36.431,-35.711,-35.103,-34.741,-34.643,-34.702,-34.796,-34.812,-34.726,-34.617,-34.572,-34.674,-34.93,-35.264,-35.593,-35.836,-35.955,-35.962,-35.871,-35.695,-35.447,-35.139,-34.779,-34.38,-33.95,-33.494,-33.018,-32.53,-32.059,-31.662,-31.4,-31.326,-31.445,-31.701,-32.032,-32.377,-32.698,-32.976,-33.195,-33.339,-33.409,-33.426,-33.41,-33.38,-33.335,-33.247,-33.084,-32.82,-32.49,-32.194,-32.044,-32.142,-32.508,-33.072,-33.752,-34.471,-35.182,-35.876,-36.544,-37.178,-37.776,-38.344,-38.886,-39.407,-39.933,-40.506,-41.171,-41.973,-42.938,-44.077,-45.396,-46.9,-48.51,-50.059,-51.37,-52.27,-52.664,-52.539,-51.889,-50.709,-49.029,-46.915,-44.434,-41.661,-38.773,-36.063,-33.836,-32.379,-31.718,-31.585,-31.682,-31.727,-31.642,-31.57,-31.679,-32.128,-33.014,-34.363,-36.194,-38.523,-41.255,-44.172,-47.048,-49.657,-51.832,-53.463,-54.444,-54.682,-54.284,-53.582,-52.93,-52.665,-52.864,-53.321,-53.799,-54.075,-54.072,-53.882,-53.609,-53.355,-53.171,-53.051,-52.986,-52.967,-52.987,-53.04,-53.122,-53.227,-53.351,-53.488,-53.638,-53.719,-53.717,-53.717,-53.717
-72.829,-72.171,-71.683,-71.291,-70.942,-70.584,-70.167,-69.639,-68.954,-68.147,-67.347,-66.689,-66.304,-66.195,-66.226,-66.248,-66.119,-65.821,-65.467,-65.186,-65.099,-65.243,-65.558,-65.978,-66.438,-66.905,-67.379,-67.867,-68.369,-68.832,-69.14,-69.173,-68.816,-68.099,-67.204,-66.331,-65.67,-65.282,-65.083,-64.976,-64.869,-64.703,-64.464,-64.136,-63.71,-63.206,-62.684,-62.208,-61.836,-61.583,-61.409,-61.272,-61.13,-60.952,-60.723,-60.427,-60.049,-59.595,-59.088,-58.553,-58.017,-57.49,-56.966,-56.438,-55.899,-55.354,-54.822,-54.32,-53.867,-53.487,-53.204,-53.047,-53.037,-53.133,-53.218,-53.167,-52.864,-52.318,-51.678,-51.106,-50.758,-50.67,-50.758,-50.919,-51.058,-51.123,-51.113,-51.03,-50.878,-50.665,-50.414,-50.144,-49.876,-49.619,-49.369,-49.124,-48.879,-48.64,-48.422,-48.241,-48.114,-48.049,-48.049,-48.117,-48.254,-48.415,-48.508,-48.435,-48.103,-47.498,-46.692,-45.767,-44.799,-43.831,-42.868,-41.91,-40.96,-40.049,-39.239,-38.599,-38.187,-37.968,-37.795,-37.511,-36.969,-36.177,-35.317,-34.587,-34.174,-34.1,-34.208,-34.32,-34.27,-34.035,-33.749,-33.566,-33.627,-33.959,-34.455,-34.997,-35.472,-35.81,-35.99,-35.995,-35.809,-35.452,-34.979,-34.45,-33.922,-33.425,-32.956,-32.509,-32.08,-31.687,-31.373,-31.181,-31.154,-31.292,-31.548,-31.871,-32.209,-32.526,-32.798,-33.003,-33.118,-33.152,-33.14,-33.122,-33.135,-33.174,-33.181,-33.097,-32.867,-32.519,-32.172,-31.957,-31.997,-32.325,-32.875,-33.572,-34.343,-35.131,-35.898,-36.607,-37.223,-37.751,-38.239,-38.74,-39.304,-39.952,-40.67,-41.443,-42.255,-43.132,-44.14,-45.349,-46.824,-48.497,-50.156,-51.577,-52.54,-52.923,-52.71,-51.893,-50.467,-48.448,-45.882,-42.813,-39.297,-35.572,-32.076,-29.274,-27.598,-27.07,-27.255,-27.669,-27.855,-27.678,-27.357,-27.15,-27.303,-27.987,-29.287,-31.282,-34.04,-37.44,-41.148,-44.811,-48.085,-50.748,-52.712,-53.9,-54.245,-53.882,-53.168,-52.482,-52.186,-52.365,-52.798,-53.235,-53.44,-53.34,-53.051,-52.705,-52.427,-52.278,-52.242,-52.298,-52.426,-52.603,-52.805,-53.008,-53.187,-53.32,-53.38,-53.339,-53.276,-53.276,-53.276,-53.276
-72.637,-72.045,-71.572,-71.157,-70.754,-70.32,-69.811,-69.185,-68.401,-67.508,-66.645,-65.962,-65.602,-65.566,-65.701,-65.838,-65.818,-65.607,-65.31,-65.045,-64.927,-64.998,-65.227,-65.576,-66.006,-66.49,-67.012,-67.558,-68.111,-68.612,-68.957,-69.038,-68.753,-68.127,-67.327,-66.533,-65.915,-65.532,-65.313,-65.175,-65.039,-64.855,-64.603,-64.269,-63.837,-63.324,-62.782,-62.263,-61.821,-61.472,-61.195,-60.962,-60.751,-60.534,-60.285,-59.98,-59.591,-59.122,-58.602,-58.065,-57.544,-57.049,-56.569,-56.089,-55.596,-55.094,-54.601,-54.139,-53.729,-53.391,-53.145,-53.009,-53,-53.081,-53.155,-53.119,-52.877,-52.433,-51.901,-51.409,-51.076,-50.939,-50.942,-51.022,-51.116,-51.18,-51.192,-51.133,-50.982,-50.747,-50.461,-50.163,-49.888,-49.645,-49.412,-49.165,-48.881,-48.567,-48.258,-47.996,-47.82,-47.741,-47.741,-47.801,-47.9,-47.994,-48.013,-47.884,-47.541,-46.966,-46.206,-45.309,-44.326,-43.296,-42.25,-41.217,-40.227,-39.319,-38.541,-37.941,-37.564,-37.364,-37.201,-36.921,-36.383,-35.597,-34.745,-34.025,-33.624,-33.56,-33.659,-33.732,-33.6,-33.249,-32.848,-32.582,-32.63,-33.026,-33.651,-34.371,-35.053,-35.605,-35.972,-36.105,-35.956,-35.543,-34.954,-34.285,-33.627,-33.029,-32.492,-32.011,-31.585,-31.226,-30.968,-30.845,-30.889,-31.091,-31.402,-31.766,-32.128,-32.451,-32.713,-32.897,-32.983,-32.985,-32.947,-32.918,-32.942,-33.015,-33.076,-33.057,-32.898,-32.617,-32.327,-32.145,-32.188,-32.49,-33.001,-33.662,-34.415,-35.206,-35.982,-36.689,-37.279,-37.758,-38.198,-38.677,-39.267,-39.984,-40.782,-41.606,-42.407,-43.202,-44.083,-45.148,-46.488,-48.054,-49.642,-51.034,-52.017,-52.455,-52.297,-51.499,-50.017,-47.842,-45.005,-41.534,-37.475,-33.117,-29.016,-25.764,-23.913,-23.48,-23.894,-24.518,-24.753,-24.44,-23.908,-23.537,-23.689,-24.569,-26.205,-28.612,-31.793,-35.59,-39.662,-43.651,-47.205,-50.099,-52.24,-53.545,-53.947,-53.584,-52.828,-52.077,-51.707,-51.811,-52.169,-52.529,-52.651,-52.471,-52.117,-51.733,-51.46,-51.359,-51.406,-51.569,-51.816,-52.115,-52.429,-52.721,-52.954,-53.093,-53.101,-52.929,-52.766,-52.767,-52.768,-52.768
-72.568,-72.05,-71.579,-71.114,-70.627,-70.093,-69.485,-68.778,-67.95,-67.049,-66.204,-65.554,-65.226,-65.219,-65.391,-65.582,-65.643,-65.53,-65.317,-65.091,-64.935,-64.897,-64.986,-65.21,-65.574,-66.059,-66.62,-67.208,-67.775,-68.263,-68.607,-68.736,-68.587,-68.179,-67.619,-67.026,-66.513,-66.122,-65.818,-65.558,-65.302,-65.021,-64.698,-64.318,-63.866,-63.353,-62.813,-62.286,-61.807,-61.39,-61.025,-60.698,-60.394,-60.097,-59.785,-59.436,-59.029,-58.562,-58.056,-57.533,-57.016,-56.514,-56.026,-55.548,-55.077,-54.618,-54.188,-53.8,-53.471,-53.215,-53.044,-52.969,-52.999,-53.105,-53.21,-53.233,-53.1,-52.806,-52.428,-52.051,-51.754,-51.57,-51.477,-51.447,-51.454,-51.466,-51.447,-51.359,-51.167,-50.875,-50.532,-50.19,-49.9,-49.668,-49.454,-49.213,-48.903,-48.528,-48.144,-47.811,-47.587,-47.483,-47.463,-47.484,-47.504,-47.485,-47.385,-47.168,-46.794,-46.25,-45.547,-44.698,-43.719,-42.645,-41.535,-40.45,-39.452,-38.576,-37.839,-37.25,-36.82,-36.509,-36.225,-35.868,-35.347,-34.674,-33.978,-33.399,-33.068,-32.986,-33.011,-32.985,-32.76,-32.341,-31.899,-31.621,-31.686,-32.131,-32.841,-33.682,-34.528,-35.269,-35.822,-36.104,-36.037,-35.629,-34.987,-34.225,-33.454,-32.739,-32.092,-31.523,-31.042,-30.667,-30.43,-30.363,-30.496,-30.812,-31.238,-31.699,-32.121,-32.461,-32.713,-32.872,-32.936,-32.921,-32.87,-32.826,-32.83,-32.885,-32.946,-32.968,-32.906,-32.772,-32.639,-32.587,-32.691,-32.978,-33.423,-33.994,-34.661,-35.381,-36.1,-36.762,-37.317,-37.77,-38.194,-38.668,-39.268,-40.004,-40.817,-41.64,-42.41,-43.135,-43.899,-44.795,-45.907,-47.209,-48.556,-49.789,-50.752,-51.31,-51.349,-50.756,-49.423,-47.302,-44.412,-40.774,-36.429,-31.7,-27.226,-23.684,-21.707,-21.312,-21.836,-22.543,-22.739,-22.276,-21.609,-21.257,-21.71,-23.162,-25.478,-28.491,-32.034,-35.908,-39.873,-43.685,-47.104,-49.946,-52.088,-53.411,-53.811,-53.41,-52.584,-51.738,-51.253,-51.233,-51.469,-51.719,-51.758,-51.527,-51.152,-50.777,-50.541,-50.5,-50.622,-50.866,-51.192,-51.56,-51.931,-52.266,-52.524,-52.668,-52.658,-52.441,-52.243,-52.245,-52.246,-52.246
-72.616,-72.169,-71.687,-71.157,-70.575,-69.937,-69.241,-68.483,-67.662,-66.825,-66.067,-65.494,-65.202,-65.186,-65.336,-65.525,-65.635,-65.618,-65.505,-65.332,-65.139,-64.972,-64.891,-64.958,-65.231,-65.7,-66.285,-66.897,-67.452,-67.893,-68.204,-68.367,-68.369,-68.217,-67.948,-67.601,-67.212,-66.806,-66.392,-65.976,-65.567,-65.162,-64.748,-64.311,-63.837,-63.329,-62.805,-62.286,-61.793,-61.332,-60.898,-60.486,-60.088,-59.696,-59.301,-58.89,-58.456,-57.993,-57.507,-57.002,-56.482,-55.957,-55.441,-54.947,-54.491,-54.081,-53.723,-53.425,-53.19,-53.025,-52.938,-52.936,-53.025,-53.182,-53.346,-53.457,-53.456,-53.331,-53.121,-52.871,-52.622,-52.401,-52.217,-52.074,-51.977,-51.908,-51.821,-51.668,-51.403,-51.032,-50.614,-50.217,-49.902,-49.674,-49.476,-49.241,-48.911,-48.486,-48.034,-47.634,-47.356,-47.211,-47.145,-47.094,-46.999,-46.826,-46.572,-46.239,-45.826,-45.32,-44.695,-43.925,-42.986,-41.906,-40.769,-39.664,-38.68,-37.848,-37.144,-36.535,-35.994,-35.492,-35.009,-34.524,-34.018,-33.503,-33.028,-32.646,-32.406,-32.29,-32.206,-32.054,-31.744,-31.299,-30.874,-30.635,-30.741,-31.225,-31.985,-32.901,-33.861,-34.75,-35.461,-35.884,-35.917,-35.556,-34.914,-34.113,-33.271,-32.464,-31.716,-31.051,-30.49,-30.065,-29.817,-29.788,-30.017,-30.475,-31.058,-31.656,-32.162,-32.528,-32.767,-32.901,-32.948,-32.934,-32.886,-32.835,-32.809,-32.818,-32.849,-32.889,-32.926,-32.965,-33.028,-33.14,-33.325,-33.596,-33.957,-34.409,-34.953,-35.566,-36.199,-36.799,-37.319,-37.763,-38.194,-38.681,-39.288,-40.021,-40.818,-41.612,-42.338,-42.994,-43.645,-44.362,-45.213,-46.199,-47.246,-48.276,-49.207,-49.912,-50.215,-49.933,-48.888,-46.99,-44.245,-40.666,-36.281,-31.433,-26.804,-23.122,-21.064,-20.655,-21.191,-21.892,-22.025,-21.471,-20.784,-20.593,-21.489,-23.626,-26.675,-30.259,-34.015,-37.71,-41.255,-44.575,-47.591,-50.185,-52.196,-53.455,-53.808,-53.352,-52.453,-51.508,-50.896,-50.726,-50.811,-50.933,-50.889,-50.627,-50.263,-49.931,-49.756,-49.785,-49.976,-50.279,-50.643,-51.027,-51.398,-51.723,-51.971,-52.107,-52.101,-51.907,-51.73,-51.732,-51.733,-51.733
-72.771,-72.377,-71.876,-71.281,-70.612,-69.889,-69.133,-68.364,-67.604,-66.889,-66.273,-65.81,-65.554,-65.498,-65.576,-65.713,-65.838,-65.903,-65.889,-65.776,-65.551,-65.256,-65.002,-64.903,-65.071,-65.507,-66.098,-66.716,-67.24,-67.62,-67.878,-68.046,-68.155,-68.206,-68.173,-68.026,-67.738,-67.317,-66.81,-66.266,-65.735,-65.236,-64.756,-64.28,-63.795,-63.295,-62.787,-62.28,-61.78,-61.29,-60.809,-60.333,-59.859,-59.386,-58.914,-58.443,-57.972,-57.5,-57.017,-56.517,-55.993,-55.453,-54.924,-54.431,-54.002,-53.648,-53.365,-53.146,-52.988,-52.891,-52.865,-52.92,-53.065,-53.282,-53.521,-53.731,-53.861,-53.89,-53.829,-53.692,-53.494,-53.254,-53.003,-52.768,-52.578,-52.422,-52.252,-52.015,-51.66,-51.195,-50.692,-50.229,-49.88,-49.647,-49.455,-49.222,-48.869,-48.394,-47.876,-47.404,-47.06,-46.853,-46.711,-46.555,-46.308,-45.949,-45.515,-45.051,-44.597,-44.145,-43.629,-42.982,-42.137,-41.11,-39.999,-38.914,-37.959,-37.162,-36.466,-35.808,-35.127,-34.414,-33.716,-33.085,-32.572,-32.188,-31.909,-31.701,-31.534,-31.375,-31.183,-30.919,-30.549,-30.115,-29.744,-29.575,-29.736,-30.255,-31.042,-31.996,-33.018,-33.997,-34.811,-35.336,-35.456,-35.16,-34.56,-33.779,-32.935,-32.106,-31.319,-30.6,-29.974,-29.486,-29.199,-29.182,-29.497,-30.106,-30.866,-31.623,-32.226,-32.619,-32.843,-32.951,-32.99,-32.993,-32.971,-32.933,-32.889,-32.853,-32.845,-32.887,-32.998,-33.178,-33.403,-33.648,-33.89,-34.131,-34.4,-34.732,-35.156,-35.668,-36.223,-36.772,-37.27,-37.718,-38.168,-38.68,-39.307,-40.047,-40.836,-41.601,-42.275,-42.85,-43.38,-43.929,-44.555,-45.282,-46.093,-46.969,-47.886,-48.729,-49.283,-49.322,-48.628,-47.077,-44.652,-41.339,-37.147,-32.411,-27.829,-24.142,-22.043,-21.574,-22.047,-22.701,-22.821,-22.311,-21.758,-21.823,-23.125,-25.767,-29.286,-33.158,-36.882,-40.218,-43.21,-45.933,-48.448,-50.699,-52.494,-53.626,-53.906,-53.399,-52.45,-51.435,-50.711,-50.391,-50.318,-50.305,-50.179,-49.898,-49.562,-49.29,-49.192,-49.298,-49.554,-49.895,-50.261,-50.609,-50.922,-51.182,-51.373,-51.479,-51.483,-51.36,-51.246,-51.247,-51.247,-51.247
-73.02,-72.653,-72.126,-71.479,-70.75,-69.98,-69.21,-68.482,-67.835,-67.291,-66.853,-66.522,-66.299,-66.178,-66.146,-66.189,-66.292,-66.413,-66.483,-66.428,-66.182,-65.78,-65.373,-65.124,-65.185,-65.57,-66.142,-66.745,-67.233,-67.552,-67.748,-67.879,-67.999,-68.11,-68.157,-68.083,-67.831,-67.403,-66.861,-66.276,-65.714,-65.201,-64.722,-64.255,-63.781,-63.29,-62.788,-62.279,-61.769,-61.26,-60.752,-60.243,-59.731,-59.218,-58.703,-58.187,-57.673,-57.159,-56.644,-56.123,-55.597,-55.074,-54.578,-54.134,-53.764,-53.476,-53.255,-53.089,-52.962,-52.879,-52.86,-52.928,-53.106,-53.379,-53.695,-53.998,-54.232,-54.37,-54.409,-54.35,-54.194,-53.961,-53.685,-53.403,-53.153,-52.927,-52.68,-52.355,-51.906,-51.344,-50.752,-50.217,-49.823,-49.571,-49.372,-49.127,-48.743,-48.213,-47.622,-47.066,-46.637,-46.339,-46.09,-45.795,-45.366,-44.795,-44.164,-43.563,-43.077,-42.702,-42.335,-41.864,-41.183,-40.286,-39.271,-38.253,-37.335,-36.544,-35.816,-35.076,-34.259,-33.37,-32.497,-31.735,-31.177,-30.834,-30.636,-30.502,-30.355,-30.152,-29.888,-29.562,-29.174,-28.777,-28.477,-28.386,-28.609,-29.166,-29.972,-30.936,-31.968,-32.962,-33.8,-34.359,-34.525,-34.29,-33.763,-33.064,-32.313,-31.574,-30.86,-30.177,-29.536,-28.989,-28.643,-28.607,-28.983,-29.733,-30.669,-31.586,-32.286,-32.703,-32.909,-32.991,-33.032,-33.072,-33.101,-33.106,-33.077,-33.026,-32.994,-33.025,-33.158,-33.393,-33.68,-33.966,-34.201,-34.382,-34.562,-34.797,-35.14,-35.596,-36.119,-36.654,-37.152,-37.611,-38.085,-38.632,-39.305,-40.093,-40.913,-41.676,-42.295,-42.764,-43.159,-43.566,-44.067,-44.7,-45.454,-46.315,-47.266,-48.199,-48.913,-49.198,-48.846,-47.72,-45.759,-42.906,-39.122,-34.713,-30.36,-26.791,-24.687,-24.119,-24.479,-25.088,-25.31,-25.052,-24.821,-25.189,-26.691,-29.388,-32.815,-36.457,-39.819,-42.691,-45.171,-47.39,-49.467,-51.373,-52.913,-53.878,-54.073,-53.541,-52.592,-51.562,-50.771,-50.327,-50.107,-49.963,-49.757,-49.459,-49.155,-48.947,-48.93,-49.117,-49.434,-49.8,-50.133,-50.396,-50.591,-50.727,-50.812,-50.853,-50.857,-50.832,-50.81,-50.811,-50.811,-50.811
-73.326,-72.958,-72.408,-71.73,-70.978,-70.207,-69.472,-68.829,-68.33,-67.981,-67.735,-67.54,-67.348,-67.152,-66.993,-66.918,-66.969,-67.113,-67.241,-67.232,-66.975,-66.497,-65.975,-65.604,-65.566,-65.885,-66.413,-66.981,-67.431,-67.699,-67.832,-67.887,-67.916,-67.928,-67.884,-67.74,-67.454,-67.031,-66.526,-65.999,-65.507,-65.069,-64.658,-64.245,-63.803,-63.321,-62.812,-62.287,-61.761,-61.239,-60.722,-60.21,-59.701,-59.192,-58.674,-58.136,-57.572,-56.985,-56.397,-55.829,-55.303,-54.831,-54.419,-54.069,-53.785,-53.56,-53.38,-53.226,-53.085,-52.965,-52.906,-52.952,-53.14,-53.46,-53.847,-54.23,-54.54,-54.74,-54.831,-54.814,-54.694,-54.486,-54.223,-53.937,-53.66,-53.386,-53.072,-52.668,-52.131,-51.479,-50.801,-50.193,-49.745,-49.457,-49.23,-48.954,-48.526,-47.933,-47.265,-46.62,-46.091,-45.682,-45.3,-44.843,-44.216,-43.427,-42.6,-41.87,-41.364,-41.084,-40.892,-40.636,-40.172,-39.467,-38.607,-37.69,-36.81,-35.993,-35.192,-34.351,-33.421,-32.419,-31.437,-30.577,-29.933,-29.521,-29.264,-29.078,-28.883,-28.636,-28.338,-27.993,-27.609,-27.237,-26.98,-26.947,-27.24,-27.866,-28.729,-29.724,-30.744,-31.691,-32.47,-32.985,-33.149,-32.965,-32.537,-31.983,-31.412,-30.874,-30.345,-29.795,-29.199,-28.618,-28.206,-28.128,-28.537,-29.401,-30.488,-31.544,-32.327,-32.76,-32.946,-33.008,-33.06,-33.151,-33.252,-33.33,-33.35,-33.32,-33.285,-33.295,-33.399,-33.596,-33.836,-34.063,-34.224,-34.321,-34.42,-34.59,-34.898,-35.35,-35.888,-36.445,-36.96,-37.432,-37.923,-38.504,-39.241,-40.112,-41.001,-41.781,-42.335,-42.665,-42.904,-43.202,-43.698,-44.436,-45.351,-46.37,-47.417,-48.389,-49.153,-49.571,-49.507,-48.834,-47.433,-45.183,-41.985,-38.09,-34.136,-30.805,-28.741,-28.055,-28.27,-28.845,-29.273,-29.443,-29.676,-30.344,-31.789,-34.044,-36.795,-39.692,-42.401,-44.776,-46.872,-48.77,-50.539,-52.139,-53.41,-54.178,-54.282,-53.761,-52.871,-51.891,-51.089,-50.562,-50.222,-49.961,-49.678,-49.359,-49.08,-48.927,-48.983,-49.242,-49.611,-49.983,-50.258,-50.399,-50.435,-50.405,-50.346,-50.293,-50.285,-50.364,-50.446,-50.445,-50.445,-50.445
-73.623,-73.242,-72.681,-71.999,-71.259,-70.523,-69.855,-69.317,-68.969,-68.8,-68.726,-68.652,-68.489,-68.232,-67.964,-67.78,-67.767,-67.904,-68.054,-68.066,-67.802,-67.277,-66.682,-66.225,-66.102,-66.346,-66.809,-67.323,-67.729,-67.957,-68.033,-67.994,-67.877,-67.698,-67.461,-67.165,-66.81,-66.411,-65.994,-65.59,-65.225,-64.9,-64.583,-64.238,-63.833,-63.36,-62.84,-62.298,-61.756,-61.227,-60.713,-60.215,-59.732,-59.253,-58.755,-58.209,-57.593,-56.918,-56.237,-55.607,-55.08,-54.672,-54.361,-54.115,-53.908,-53.722,-53.545,-53.371,-53.191,-53.027,-52.931,-52.958,-53.161,-53.527,-53.98,-54.434,-54.807,-55.057,-55.188,-55.207,-55.12,-54.943,-54.701,-54.42,-54.123,-53.805,-53.43,-52.955,-52.344,-51.62,-50.873,-50.198,-49.687,-49.34,-49.056,-48.723,-48.238,-47.586,-46.85,-46.125,-45.499,-44.974,-44.455,-43.837,-43.026,-42.045,-41.052,-40.217,-39.703,-39.515,-39.487,-39.438,-39.193,-38.692,-37.999,-37.191,-36.339,-35.476,-34.583,-33.64,-32.628,-31.572,-30.542,-29.616,-28.865,-28.304,-27.885,-27.554,-27.257,-26.956,-26.632,-26.263,-25.834,-25.401,-25.097,-25.067,-25.444,-26.226,-27.264,-28.391,-29.446,-30.326,-30.988,-31.398,-31.524,-31.391,-31.094,-30.732,-30.402,-30.123,-29.836,-29.472,-28.969,-28.392,-27.937,-27.82,-28.24,-29.175,-30.361,-31.509,-32.343,-32.78,-32.949,-33,-33.075,-33.226,-33.409,-33.57,-33.656,-33.662,-33.633,-33.619,-33.666,-33.779,-33.919,-34.039,-34.097,-34.105,-34.133,-34.259,-34.554,-35.022,-35.589,-36.175,-36.705,-37.176,-37.667,-38.267,-39.055,-39.999,-40.946,-41.724,-42.178,-42.329,-42.392,-42.605,-43.191,-44.191,-45.441,-46.759,-47.968,-48.961,-49.702,-50.166,-50.322,-50.071,-49.245,-47.662,-45.163,-41.933,-38.535,-35.574,-33.623,-32.832,-32.881,-33.401,-34.046,-34.674,-35.382,-36.285,-37.494,-39.024,-40.788,-42.69,-44.634,-46.548,-48.388,-50.108,-51.663,-52.983,-53.966,-54.509,-54.518,-54.033,-53.251,-52.379,-51.62,-51.053,-50.624,-50.264,-49.912,-49.568,-49.299,-49.181,-49.283,-49.587,-49.979,-50.334,-50.534,-50.543,-50.416,-50.219,-50.014,-49.865,-49.836,-50.003,-50.176,-50.175,-50.174,-50.174
-73.84,-73.453,-72.902,-72.247,-71.552,-70.879,-70.291,-69.852,-69.622,-69.581,-69.623,-69.632,-69.5,-69.22,-68.896,-68.645,-68.576,-68.676,-68.804,-68.801,-68.523,-67.979,-67.356,-66.856,-66.671,-66.836,-67.217,-67.659,-68.015,-68.209,-68.24,-68.117,-67.848,-67.461,-67.01,-66.549,-66.13,-65.777,-65.478,-65.221,-64.99,-64.765,-64.518,-64.218,-63.837,-63.373,-62.852,-62.303,-61.755,-61.225,-60.718,-60.236,-59.783,-59.339,-58.865,-58.315,-57.651,-56.891,-56.118,-55.422,-54.889,-54.537,-54.308,-54.137,-53.964,-53.76,-53.539,-53.314,-53.102,-52.933,-52.854,-52.916,-53.164,-53.584,-54.098,-54.618,-55.064,-55.388,-55.589,-55.665,-55.619,-55.461,-55.216,-54.912,-54.573,-54.198,-53.758,-53.221,-52.557,-51.79,-51.001,-50.275,-49.694,-49.259,-48.88,-48.46,-47.906,-47.203,-46.423,-45.646,-44.945,-44.319,-43.679,-42.928,-41.977,-40.864,-39.763,-38.867,-38.353,-38.231,-38.319,-38.418,-38.338,-37.998,-37.439,-36.714,-35.875,-34.956,-33.976,-32.951,-31.897,-30.84,-29.813,-28.851,-27.987,-27.237,-26.598,-26.063,-25.627,-25.254,-24.877,-24.423,-23.829,-23.168,-22.658,-22.537,-23.024,-24.11,-25.525,-26.977,-28.184,-29.021,-29.536,-29.795,-29.861,-29.795,-29.665,-29.534,-29.464,-29.447,-29.399,-29.227,-28.849,-28.327,-27.883,-27.757,-28.175,-29.123,-30.329,-31.493,-32.329,-32.755,-32.914,-32.97,-33.079,-33.294,-33.555,-33.791,-33.935,-33.972,-33.947,-33.907,-33.9,-33.935,-33.982,-34.006,-33.976,-33.911,-33.883,-33.971,-34.249,-34.716,-35.289,-35.878,-36.396,-36.842,-37.306,-37.889,-38.682,-39.643,-40.583,-41.296,-41.592,-41.518,-41.385,-41.53,-42.269,-43.635,-45.339,-47.063,-48.501,-49.531,-50.224,-50.676,-50.969,-51.054,-50.735,-49.796,-48.044,-45.594,-42.899,-40.45,-38.715,-37.864,-37.74,-38.151,-38.914,-39.877,-40.924,-41.942,-42.826,-43.585,-44.361,-45.306,-46.564,-48.128,-49.824,-51.46,-52.851,-53.893,-54.565,-54.858,-54.762,-54.333,-53.694,-52.978,-52.31,-51.747,-51.265,-50.832,-50.422,-50.048,-49.769,-49.653,-49.758,-50.056,-50.425,-50.732,-50.849,-50.745,-50.491,-50.167,-49.854,-49.632,-49.581,-49.797,-50.026,-50.025,-50.023,-50.023
-73.911,-73.538,-73.03,-72.438,-71.817,-71.224,-70.714,-70.344,-70.166,-70.161,-70.23,-70.266,-70.168,-69.926,-69.633,-69.389,-69.289,-69.326,-69.379,-69.314,-69.008,-68.472,-67.869,-67.374,-67.154,-67.244,-67.53,-67.884,-68.182,-68.347,-68.352,-68.176,-67.799,-67.257,-66.648,-66.074,-65.633,-65.353,-65.18,-65.054,-64.915,-64.729,-64.485,-64.173,-63.786,-63.33,-62.826,-62.295,-61.759,-61.235,-60.73,-60.255,-59.815,-59.391,-58.928,-58.371,-57.668,-56.842,-55.996,-55.247,-54.699,-54.37,-54.172,-54.009,-53.79,-53.491,-53.163,-52.864,-52.651,-52.559,-52.602,-52.795,-53.147,-53.636,-54.205,-54.793,-55.338,-55.795,-56.131,-56.317,-56.324,-56.157,-55.857,-55.47,-55.038,-54.575,-54.06,-53.469,-52.78,-52.01,-51.217,-50.463,-49.806,-49.249,-48.731,-48.187,-47.552,-46.818,-46.03,-45.244,-44.509,-43.815,-43.091,-42.256,-41.24,-40.085,-38.965,-38.064,-37.559,-37.455,-37.574,-37.717,-37.695,-37.42,-36.918,-36.223,-35.371,-34.401,-33.358,-32.291,-31.242,-30.231,-29.248,-28.28,-27.317,-26.373,-25.497,-24.739,-24.142,-23.667,-23.178,-22.528,-21.585,-20.459,-19.524,-19.185,-19.818,-21.402,-23.473,-25.52,-27.061,-27.924,-28.289,-28.369,-28.367,-28.396,-28.471,-28.595,-28.772,-28.965,-29.096,-29.08,-28.84,-28.439,-28.086,-28.008,-28.418,-29.309,-30.431,-31.508,-32.281,-32.678,-32.838,-32.921,-33.076,-33.35,-33.672,-33.958,-34.132,-34.175,-34.139,-34.078,-34.045,-34.055,-34.076,-34.071,-34.009,-33.907,-33.838,-33.883,-34.113,-34.53,-35.051,-35.584,-36.044,-36.429,-36.829,-37.344,-38.065,-38.94,-39.762,-40.304,-40.36,-40.013,-39.663,-39.748,-40.675,-42.461,-44.686,-46.886,-48.621,-49.738,-50.401,-50.811,-51.149,-51.428,-51.469,-51.07,-50.048,-48.453,-46.595,-44.81,-43.419,-42.586,-42.293,-42.508,-43.195,-44.219,-45.338,-46.295,-46.851,-47.02,-47.096,-47.4,-48.236,-49.625,-51.278,-52.874,-54.109,-54.857,-55.192,-55.21,-55,-54.635,-54.165,-53.639,-53.106,-52.592,-52.098,-51.623,-51.169,-50.759,-50.447,-50.288,-50.334,-50.556,-50.839,-51.059,-51.098,-50.928,-50.618,-50.25,-49.903,-49.655,-49.587,-49.792,-50.018,-50.017,-50.016,-50.016
-73.807,-73.471,-73.034,-72.534,-72.013,-71.511,-71.071,-70.736,-70.543,-70.483,-70.491,-70.495,-70.428,-70.278,-70.091,-69.923,-69.821,-69.778,-69.716,-69.553,-69.212,-68.711,-68.171,-67.726,-67.502,-67.525,-67.712,-67.969,-68.203,-68.345,-68.345,-68.155,-67.735,-67.121,-66.441,-65.831,-65.42,-65.232,-65.175,-65.143,-65.039,-64.819,-64.504,-64.121,-63.696,-63.244,-62.77,-62.276,-61.767,-61.251,-60.744,-60.262,-59.817,-59.39,-58.924,-58.355,-57.628,-56.766,-55.882,-55.098,-54.53,-54.188,-53.962,-53.733,-53.389,-52.921,-52.434,-52.045,-51.866,-51.933,-52.201,-52.617,-53.128,-53.701,-54.319,-54.97,-55.637,-56.275,-56.806,-57.146,-57.218,-57.016,-56.613,-56.089,-55.521,-54.944,-54.346,-53.709,-53.019,-52.279,-51.515,-50.752,-50.017,-49.314,-48.625,-47.929,-47.207,-46.457,-45.695,-44.939,-44.207,-43.484,-42.719,-41.857,-40.85,-39.743,-38.685,-37.835,-37.343,-37.211,-37.275,-37.355,-37.28,-36.968,-36.436,-35.712,-34.823,-33.812,-32.742,-31.675,-30.674,-29.745,-28.836,-27.891,-26.854,-25.744,-24.652,-23.68,-22.92,-22.318,-21.662,-20.719,-19.282,-17.516,-15.998,-15.35,-16.152,-18.371,-21.293,-24.134,-26.15,-27.109,-27.343,-27.245,-27.183,-27.329,-27.627,-28.003,-28.383,-28.709,-28.935,-29.017,-28.915,-28.687,-28.498,-28.523,-28.927,-29.702,-30.652,-31.557,-32.213,-32.567,-32.739,-32.865,-33.072,-33.392,-33.747,-34.051,-34.221,-34.245,-34.184,-34.111,-34.093,-34.143,-34.216,-34.262,-34.232,-34.137,-34.047,-34.042,-34.193,-34.506,-34.909,-35.324,-35.677,-35.965,-36.265,-36.662,-37.232,-37.917,-38.507,-38.779,-38.529,-37.878,-37.309,-37.343,-38.467,-40.679,-43.435,-46.135,-48.208,-49.464,-50.136,-50.498,-50.807,-51.142,-51.383,-51.39,-51.032,-50.31,-49.361,-48.34,-47.397,-46.657,-46.213,-46.159,-46.576,-47.38,-48.295,-49.029,-49.306,-49.15,-48.908,-48.967,-49.683,-51.071,-52.757,-54.329,-55.397,-55.838,-55.823,-55.555,-55.226,-54.927,-54.637,-54.323,-53.957,-53.531,-53.066,-52.581,-52.098,-51.65,-51.282,-51.041,-50.971,-51.052,-51.192,-51.295,-51.268,-51.087,-50.806,-50.485,-50.183,-49.959,-49.875,-50,-50.155,-50.155,-50.154,-50.154
-73.547,-73.249,-72.896,-72.504,-72.095,-71.694,-71.324,-71.008,-70.767,-70.605,-70.502,-70.434,-70.382,-70.329,-70.271,-70.201,-70.112,-69.991,-69.813,-69.554,-69.191,-68.749,-68.305,-67.942,-67.737,-67.708,-67.803,-67.967,-68.143,-68.269,-68.282,-68.112,-67.7,-67.083,-66.401,-65.812,-65.46,-65.362,-65.396,-65.423,-65.312,-65.019,-64.599,-64.116,-63.631,-63.17,-62.718,-62.258,-61.774,-61.267,-60.755,-60.261,-59.804,-59.367,-58.892,-58.318,-57.589,-56.726,-55.839,-55.048,-54.464,-54.086,-53.795,-53.455,-52.942,-52.268,-51.599,-51.116,-50.988,-51.25,-51.785,-52.461,-53.154,-53.811,-54.469,-55.168,-55.945,-56.759,-57.483,-57.977,-58.113,-57.873,-57.362,-56.698,-55.994,-55.306,-54.63,-53.956,-53.272,-52.571,-51.841,-51.076,-50.266,-49.419,-48.56,-47.713,-46.905,-46.142,-45.412,-44.7,-43.991,-43.264,-42.492,-41.644,-40.694,-39.685,-38.732,-37.959,-37.483,-37.298,-37.262,-37.222,-37.031,-36.618,-36.003,-35.213,-34.275,-33.235,-32.162,-31.128,-30.199,-29.37,-28.554,-27.654,-26.584,-25.356,-24.098,-22.952,-22.044,-21.31,-20.473,-19.23,-17.312,-14.94,-12.874,-11.937,-12.895,-15.703,-19.42,-23.008,-25.487,-26.566,-26.713,-26.477,-26.379,-26.635,-27.127,-27.704,-28.222,-28.609,-28.863,-28.995,-29.013,-28.971,-28.972,-29.124,-29.528,-30.172,-30.922,-31.63,-32.155,-32.467,-32.657,-32.828,-33.076,-33.417,-33.775,-34.066,-34.212,-34.207,-34.129,-34.061,-34.085,-34.212,-34.38,-34.518,-34.562,-34.508,-34.42,-34.373,-34.435,-34.616,-34.865,-35.125,-35.342,-35.512,-35.691,-35.94,-36.312,-36.744,-37.044,-37.002,-36.432,-35.496,-34.736,-34.739,-36.05,-38.649,-41.886,-45.045,-47.447,-48.867,-49.578,-49.905,-50.158,-50.478,-50.822,-51.129,-51.344,-51.422,-51.34,-51.071,-50.597,-49.991,-49.427,-49.09,-49.155,-49.596,-50.17,-50.609,-50.667,-50.376,-50.077,-50.147,-50.934,-52.417,-54.17,-55.72,-56.623,-56.77,-56.425,-55.889,-55.449,-55.213,-55.097,-54.995,-54.808,-54.499,-54.094,-53.628,-53.136,-52.653,-52.219,-51.876,-51.661,-51.567,-51.54,-51.52,-51.448,-51.305,-51.115,-50.905,-50.7,-50.527,-50.413,-50.388,-50.413,-50.414,-50.414,-50.414
